%YAML:1.0
depth: !!opencv-matrix
   rows: 37
   cols: 640
   dt: w
   data: [ 0, 0, 0, 0, 0, 0, 0, 0, 0, 0, 0, 0, 0, 0, 0, 0, 0, 0, 0, 0, 0, 0, 0, 0, 0, 0, 0, 0, 0, 0, 0, 0, 0, 0, 0, 0, 0, 0, 0, 0, 0, 0, 0, 0, 0, 0, 0, 0, 0, 0, 0, 0, 0, 0, 0, 0, 0, 0, 0, 0, 0, 0, 0, 0, 0, 0, 0, 0, 0, 0, 0, 0, 0, 0, 0, 0, 0, 0, 0, 0, 0, 0, 0, 0, 0, 0, 0, 0, 0, 0, 0, 0, 0, 0, 0, 0, 0, 0, 0, 0, 0, 0, 0, 0, 0, 0, 0, 0, 0, 0, 0, 0, 0, 0, 0, 0, 0, 0, 0, 0, 0, 0, 0, 0, 0, 0, 527, 526, 524, 523, 523, 523, 522, 522, 521, 521, 521, 521, 521, 521, 521, 521, 521, 521, 521, 521, 521, 521, 521, 521, 521, 521, 521, 521, 521, 521, 521, 521, 521, 521, 521, 522, 522, 523, 523, 523, 523, 523, 523, 523, 523, 523, 523, 523, 523, 523, 523, 523, 523, 523, 523, 523, 523, 523, 523, 523, 523, 523, 523, 523, 523, 523, 523, 523, 523, 523, 524, 524, 524, 524, 524, 524, 524, 524, 524, 524, 524, 524, 525, 525, 525, 526, 526, 526, 526, 526, 526, 526, 525, 525, 526, 526, 526, 526, 527, 527, 527, 527, 527, 527, 527, 527, 527, 527, 527, 527, 527, 527, 527, 527, 527, 527, 527, 527, 527, 527, 527, 527, 527, 527, 527, 527, 527, 528, 528, 528, 528, 528, 529, 529, 529, 529, 528, 528, 529, 529, 528, 528, 528, 528, 528, 528, 528, 528, 528, 529, 529, 529, 529, 529, 530, 530, 530, 530, 530, 529, 529, 530, 530, 530, 530, 530, 530, 530, 529, 529, 529, 529, 529, 530, 530, 530, 530, 531, 531, 531, 531, 531, 531, 531, 531, 531, 531, 531, 531, 531, 531, 531, 531, 531, 531, 532, 532, 532, 532, 533, 533, 533, 533, 534, 534, 534, 534, 534, 535, 535, 535, 536, 536, 536, 536, 536, 536, 536, 536, 537, 537, 537, 537, 537, 537, 537, 537, 537, 537, 538, 538, 539, 539, 539, 540, 540, 540, 540, 541, 541, 541, 541, 541, 541, 541, 541, 541, 542, 542, 542, 542, 542, 542, 543, 543, 543, 543, 544, 544, 545, 545, 545, 545, 546, 547, 547, 547, 547, 548, 548, 548, 548, 548, 549, 550, 551, 551, 550, 550, 551, 550, 550, 550, 551, 551, 552, 552, 552, 553, 554, 554, 554, 554, 554, 554, 555, 555, 555, 555, 555, 555, 555, 555, 555, 555, 555, 555, 555, 555, 555, 0, 0, 0, 0, 0, 0, 0, 0, 0, 0, 0, 0, 0, 0, 0, 0, 0, 0, 0, 0, 0, 0, 0, 0, 0, 0, 0, 0, 0, 0, 0, 0, 0, 0, 0, 0, 0, 0, 0, 0, 0, 0, 0, 0, 0, 0, 0, 0, 0, 0, 0, 0, 0, 0, 0, 0, 0, 0, 0, 0, 0, 0, 0, 0, 0, 0, 0, 0, 0, 0, 0, 0, 0, 0, 0, 0, 0, 0, 0, 0, 0, 0, 0, 0, 0, 0, 0, 0, 0, 0, 0, 0, 0, 0, 0, 0, 0, 0, 0, 0, 0, 0, 0, 0, 0, 0, 0, 0, 0, 0, 0, 0, 0, 0, 0, 0, 0, 0, 0, 0, 0, 0, 0, 0, 0, 0, 0, 0, 0, 0, 0, 0, 0, 0, 0, 0, 0, 0, 0, 0, 0, 0, 0, 0, 0, 0, 0, 0, 0, 0, 0, 0, 0, 0, 0, 0, 0, 0, 0, 0, 0, 0, 0, 0, 0, 0, 0, 0, 0, 0, 0, 0, 0, 0, 0, 0, 0, 0, 0, 0, 0, 0, 0, 0, 0, 0, 0, 0, 0, 0, 0, 0, 0, 0, 0, 0, 0, 0, 0, 0, 0, 0, 0, 0,
       0, 0, 0, 0, 0, 0, 0, 0, 0, 0, 0, 0, 0, 0, 0, 0, 0, 0, 0, 0, 0, 0, 0, 0, 0, 0, 0, 0, 0, 0, 0, 0, 0, 0, 0, 0, 0, 0, 0, 0, 0, 0, 0, 0, 0, 0, 0, 0, 0, 0, 0, 0, 0, 0, 0, 0, 0, 0, 0, 0, 0, 0, 0, 0, 0, 0, 0, 0, 0, 0, 0, 0, 0, 0, 0, 0, 0, 0, 0, 0, 0, 0, 0, 0, 0, 0, 0, 0, 0, 0, 0, 0, 0, 0, 0, 0, 0, 0, 0, 0, 0, 0, 0, 0, 0, 0, 0, 0, 0, 0, 0, 0, 0, 0, 0, 0, 0, 0, 0, 0, 0, 0, 0, 0, 0, 0, 527, 524, 523, 523, 523, 522, 521, 521, 521, 521, 521, 521, 521, 521, 521, 521, 521, 520, 520, 520, 520, 520, 521, 521, 521, 521, 521, 521, 521, 521, 521, 521, 521, 521, 521, 521, 522, 522, 523, 523, 523, 523, 523, 523, 523, 523, 523, 523, 523, 523, 523, 523, 523, 523, 523, 523, 523, 523, 523, 523, 523, 523, 523, 523, 523, 523, 523, 523, 523, 523, 523, 523, 524, 524, 524, 524, 524, 524, 524, 524, 524, 524, 525, 525, 525, 525, 525, 525, 525, 526, 526, 525, 525, 525, 526, 526, 526, 526, 526, 527, 527, 527, 526, 526, 526, 527, 527, 527, 527, 527, 527, 527, 526, 526, 526, 526, 527, 527, 527, 527, 527, 527, 527, 527, 527, 527, 527, 528, 528, 528, 528, 528, 528, 529, 528, 528, 528, 528, 529, 529, 528, 528, 528, 528, 528, 528, 528, 528, 528, 529, 529, 529, 529, 529, 530, 530, 530, 529, 529, 529, 529, 529, 530, 529, 529, 529, 529, 529, 529, 529, 529, 529, 529, 530, 530, 530, 530, 530, 530, 530, 530, 531, 530, 530, 531, 531, 531, 531, 531, 531, 531, 531, 531, 531, 531, 531, 532, 532, 532, 533, 533, 533, 533, 533, 533, 533, 533, 533, 534, 534, 534, 535, 535, 535, 535, 535, 535, 535, 536, 536, 536, 536, 536, 536, 536, 537, 537, 537, 537, 537, 537, 538, 538, 539, 539, 540, 540, 540, 540, 540, 540, 541, 541, 541, 541, 541, 541, 541, 541, 541, 541, 541, 542, 542, 542, 543, 543, 543, 543, 543, 543, 543, 543, 544, 546, 546, 546, 547, 547, 547, 547, 547, 547, 548, 549, 549, 549, 549, 549, 549, 549, 549, 550, 550, 550, 551, 551, 551, 552, 552, 552, 553, 553, 553, 553, 554, 554, 554, 554, 555, 555, 555, 555, 555, 555, 555, 555, 555, 555, 555, 555, 555, 555, 555, 556, 0, 0, 0, 0, 0, 0, 0, 0, 0, 0, 0, 0, 0, 0, 0, 0, 0, 0, 0, 0, 0, 0, 0, 0, 0, 0, 0, 0, 0, 0, 0, 0, 0, 0, 0, 0, 0, 0, 0, 0, 0, 0, 0, 0, 0, 0, 0, 0, 0, 0, 0, 0, 0, 0, 0, 0, 0, 0, 0, 0, 0, 0, 0, 0, 0, 0, 0, 0, 0, 0, 0, 0, 0, 0, 0, 0, 0, 0, 0, 0, 0, 0, 0, 0, 0, 0, 0, 0, 0, 0, 0, 0, 0, 0, 0, 0, 0, 0, 0, 0, 0, 0, 0, 0, 0, 0, 0, 0, 0, 0, 0, 0, 0, 0, 0, 0, 0, 0, 0, 0, 0, 0, 0, 0, 0, 0, 0, 0, 0, 0, 0, 0, 0, 0, 0, 0, 0, 0, 0, 0, 0, 0, 0, 0, 0, 0, 0, 0, 0, 0, 0, 0, 0, 0, 0, 0, 0, 0, 0, 0, 0, 0, 0, 0, 0, 0, 0, 0, 0, 0, 0, 0, 0, 0, 0, 0, 0, 0, 0, 0, 0, 0, 0, 0, 0, 0, 0, 0, 0, 0, 0, 0, 0, 0, 0, 0, 0, 0, 0,
       0, 0, 0, 0, 0, 0, 0, 0, 0, 0, 0, 0, 0, 0, 0, 0, 0, 0, 0, 0, 0, 0, 0, 0, 0, 0, 0, 0, 0, 0, 0, 0, 0, 0, 0, 0, 0, 0, 0, 0, 0, 0, 0, 0, 0, 0, 0, 0, 0, 0, 0, 0, 0, 0, 0, 0, 0, 0, 0, 0, 0, 0, 0, 0, 0, 0, 0, 0, 0, 0, 0, 0, 0, 0, 0, 0, 0, 0, 0, 0, 0, 0, 0, 0, 0, 0, 0, 0, 0, 0, 0, 0, 0, 0, 0, 0, 0, 0, 0, 0, 0, 0, 0, 0, 0, 0, 0, 0, 0, 0, 0, 0, 0, 0, 0, 0, 0, 0, 0, 0, 0, 0, 0, 0, 0, 0, 0, 523, 523, 523, 521, 521, 521, 520, 520, 520, 520, 521, 521, 520, 520, 520, 520, 520, 520, 520, 520, 520, 521, 521, 521, 521, 521, 521, 521, 521, 521, 521, 521, 521, 521, 521, 521, 522, 522, 523, 523, 523, 523, 523, 523, 523, 523, 523, 522, 522, 523, 523, 523, 523, 523, 523, 523, 523, 523, 523, 523, 523, 523, 523, 523, 523, 523, 523, 523, 523, 523, 523, 523, 523, 523, 523, 523, 523, 523, 524, 524, 524, 525, 525, 525, 525, 525, 525, 525, 525, 525, 525, 525, 525, 525, 526, 526, 526, 526, 526, 526, 526, 526, 526, 526, 526, 526, 527, 527, 527, 526, 526, 526, 526, 526, 526, 526, 526, 527, 527, 527, 527, 527, 527, 527, 527, 527, 528, 528, 528, 528, 528, 528, 528, 528, 528, 528, 528, 528, 528, 528, 528, 528, 528, 528, 528, 528, 528, 528, 528, 528, 529, 529, 529, 529, 529, 529, 529, 529, 529, 529, 529, 529, 529, 529, 529, 529, 529, 529, 529, 529, 529, 529, 530, 530, 530, 530, 530, 530, 530, 530, 530, 530, 530, 531, 531, 531, 531, 531, 531, 530, 530, 530, 531, 531, 531, 531, 532, 532, 532, 532, 532, 533, 533, 533, 533, 533, 533, 533, 534, 534, 534, 534, 534, 534, 534, 534, 534, 536, 536, 536, 536, 536, 536, 536, 536, 536, 536, 536, 537, 537, 537, 538, 538, 538, 539, 539, 539, 539, 539, 539, 540, 540, 540, 540, 540, 540, 541, 541, 541, 541, 541, 541, 541, 541, 542, 542, 542, 542, 542, 542, 542, 543, 543, 544, 545, 545, 545, 546, 547, 547, 547, 547, 547, 547, 547, 547, 547, 547, 548, 548, 548, 548, 549, 549, 550, 550, 550, 551, 551, 551, 551, 552, 552, 552, 553, 553, 553, 554, 554, 555, 555, 555, 555, 555, 555, 555, 555, 555, 555, 555, 555, 555, 555, 556, 556, 556, 556, 556, 557, 558, 558, 560, 559, 559, 559, 559, 559, 559, 559, 559, 560, 0, 0, 0, 0, 0, 0, 0, 0, 0, 0, 0, 0, 0, 0, 0, 0, 0, 0, 0, 0, 0, 0, 0, 0, 0, 0, 0, 0, 0, 0, 0, 0, 0, 0, 0, 0, 0, 0, 0, 0, 0, 0, 0, 0, 0, 0, 0, 0, 0, 0, 0, 0, 0, 0, 0, 0, 0, 0, 0, 0, 0, 0, 0, 0, 0, 0, 0, 0, 0, 0, 0, 0, 0, 0, 0, 0, 0, 0, 0, 0, 0, 0, 0, 0, 0, 0, 0, 0, 0, 0, 0, 0, 0, 0, 0, 0, 0, 0, 0, 0, 0, 0, 0, 0, 0, 0, 0, 0, 0, 0, 0, 0, 0, 0, 0, 0, 0, 0, 0, 0, 0, 0, 0, 0, 0, 0, 0, 0, 0, 0, 0, 0, 0, 0, 0, 0, 0, 0, 0, 0, 0, 0, 0, 0, 0, 0, 0, 0, 0, 0, 0, 0, 0, 0, 0, 0, 0, 0, 0, 0, 0, 0, 0, 0, 0, 0, 0, 0, 0, 0, 0, 0, 0, 0, 0, 0, 0, 0, 0, 0, 0, 0,
       0, 0, 0, 0, 0, 0, 0, 0, 0, 0, 0, 0, 0, 0, 0, 0, 0, 0, 0, 0, 0, 0, 0, 0, 0, 0, 0, 0, 0, 0, 0, 0, 0, 0, 0, 0, 0, 0, 0, 0, 0, 0, 0, 0, 0, 0, 0, 0, 0, 0, 0, 0, 0, 0, 0, 0, 0, 0, 0, 0, 0, 0, 0, 0, 0, 0, 0, 0, 0, 0, 0, 0, 0, 0, 0, 0, 0, 0, 0, 0, 0, 0, 0, 0, 0, 0, 0, 0, 0, 0, 0, 0, 0, 0, 0, 0, 0, 0, 0, 0, 0, 0, 0, 0, 0, 0, 0, 0, 0, 0, 0, 0, 0, 0, 0, 0, 0, 0, 0, 0, 0, 0, 0, 0, 0, 0, 0, 523, 522, 521, 521, 520, 520, 520, 520, 520, 520, 520, 520, 520, 520, 520, 520, 520, 520, 520, 520, 520, 520, 520, 520, 520, 521, 521, 521, 521, 521, 521, 520, 520, 521, 521, 521, 521, 522, 522, 522, 522, 522, 522, 522, 522, 522, 522, 522, 522, 522, 522, 522, 522, 523, 523, 523, 523, 523, 523, 523, 523, 523, 523, 523, 523, 523, 523, 523, 523, 523, 523, 523, 523, 523, 523, 523, 523, 523, 524, 524, 524, 525, 525, 525, 525, 525, 525, 525, 525, 525, 525, 525, 525, 525, 525, 525, 526, 526, 526, 526, 526, 526, 526, 526, 526, 526, 527, 526, 526, 526, 526, 526, 526, 526, 526, 526, 526, 526, 527, 527, 527, 527, 527, 527, 527, 527, 528, 528, 528, 528, 528, 528, 528, 528, 528, 528, 528, 528, 528, 528, 528, 528, 528, 528, 528, 528, 528, 528, 528, 528, 529, 529, 529, 529, 529, 529, 529, 529, 529, 529, 529, 529, 529, 529, 529, 529, 529, 528, 528, 528, 528, 528, 529, 529, 529, 530, 530, 530, 530, 530, 530, 531, 531, 530, 530, 530, 530, 530, 530, 530, 530, 530, 530, 531, 531, 531, 531, 532, 532, 532, 532, 532, 533, 533, 533, 533, 533, 533, 533, 534, 534, 534, 534, 534, 534, 534, 534, 535, 535, 536, 536, 536, 536, 536, 536, 536, 536, 536, 536, 537, 537, 537, 537, 537, 538, 538, 538, 539, 539, 539, 539, 540, 540, 540, 540, 540, 540, 540, 540, 540, 540, 540, 541, 541, 541, 541, 541, 541, 542, 542, 542, 542, 542, 544, 544, 544, 544, 544, 544, 545, 545, 546, 546, 546, 547, 547, 547, 547, 547, 547, 547, 547, 548, 548, 548, 549, 549, 550, 550, 549, 549, 551, 551, 551, 552, 552, 552, 552, 553, 553, 553, 553, 553, 553, 554, 554, 554, 554, 554, 555, 555, 555, 555, 555, 555, 555, 555, 556, 557, 557, 557, 559, 559, 559, 558, 558, 558, 558, 558, 559, 559, 561, 561, 0, 0, 0, 0, 0, 0, 0, 0, 0, 0, 0, 0, 0, 0, 0, 0, 0, 0, 0, 0, 0, 0, 0, 0, 0, 0, 0, 0, 0, 0, 0, 0, 0, 0, 0, 0, 0, 0, 0, 0, 0, 0, 0, 0, 0, 0, 0, 0, 0, 0, 0, 0, 0, 0, 0, 0, 0, 0, 0, 0, 0, 0, 0, 0, 0, 0, 0, 0, 0, 0, 0, 0, 0, 0, 0, 0, 0, 0, 0, 0, 0, 0, 0, 0, 0, 0, 0, 0, 0, 0, 0, 0, 0, 0, 0, 0, 0, 0, 0, 0, 0, 0, 0, 0, 0, 0, 0, 0, 0, 0, 0, 0, 0, 0, 0, 0, 0, 0, 0, 0, 0, 0, 0, 0, 0, 0, 0, 0, 0, 0, 0, 0, 0, 0, 0, 0, 0, 0, 0, 0, 0, 0, 0, 0, 0, 0, 0, 0, 0, 0, 0, 0, 0, 0, 0, 0, 0, 0, 0, 0, 0, 0, 0, 0, 0, 0, 0, 0, 0, 0, 0, 0, 0, 0, 0, 0, 0, 0, 0, 0,
       0, 0, 0, 0, 0, 0, 0, 0, 0, 0, 0, 0, 0, 0, 0, 0, 0, 0, 0, 0, 0, 0, 0, 0, 0, 0, 0, 0, 0, 0, 0, 0, 0, 0, 0, 0, 0, 0, 0, 0, 0, 0, 0, 0, 0, 0, 0, 0, 0, 0, 0, 0, 0, 0, 0, 0, 0, 0, 0, 0, 0, 0, 0, 0, 0, 0, 0, 0, 0, 0, 0, 0, 0, 0, 0, 0, 0, 0, 0, 0, 0, 0, 0, 0, 0, 0, 0, 0, 0, 0, 0, 0, 0, 0, 0, 0, 0, 0, 0, 0, 0, 0, 0, 0, 0, 0, 0, 0, 0, 0, 0, 0, 0, 0, 0, 0, 0, 0, 0, 0, 0, 0, 0, 0, 0, 0, 0, 0, 521, 521, 520, 520, 520, 520, 520, 520, 520, 520, 520, 520, 520, 520, 520, 520, 520, 520, 520, 520, 520, 520, 520, 520, 521, 520, 520, 521, 520, 520, 520, 520, 520, 521, 521, 521, 522, 522, 522, 522, 522, 522, 522, 522, 522, 522, 522, 522, 522, 522, 522, 522, 523, 523, 523, 523, 523, 523, 523, 523, 523, 523, 523, 523, 523, 523, 523, 523, 523, 523, 523, 523, 523, 523, 523, 523, 523, 524, 524, 524, 525, 525, 525, 525, 525, 525, 525, 525, 525, 525, 525, 525, 525, 525, 525, 525, 526, 526, 526, 526, 526, 526, 526, 526, 526, 527, 526, 526, 526, 526, 526, 526, 526, 526, 526, 526, 526, 526, 527, 527, 527, 527, 527, 527, 527, 527, 527, 527, 527, 527, 528, 528, 528, 528, 528, 528, 528, 528, 528, 528, 528, 528, 528, 528, 528, 528, 528, 528, 528, 528, 528, 529, 529, 529, 529, 529, 529, 529, 529, 529, 529, 529, 529, 529, 529, 528, 528, 528, 528, 528, 528, 529, 529, 529, 529, 530, 530, 530, 530, 531, 531, 530, 530, 530, 530, 530, 530, 530, 530, 530, 530, 530, 531, 531, 531, 531, 531, 531, 532, 532, 532, 532, 532, 533, 533, 533, 533, 533, 533, 533, 533, 533, 533, 533, 533, 533, 534, 535, 536, 536, 536, 536, 536, 536, 536, 536, 536, 536, 536, 536, 537, 537, 537, 537, 538, 538, 538, 538, 539, 539, 539, 539, 539, 539, 539, 539, 539, 540, 540, 540, 540, 540, 540, 541, 541, 541, 541, 541, 541, 541, 542, 542, 543, 543, 543, 543, 543, 543, 544, 544, 544, 544, 544, 545, 546, 546, 546, 546, 546, 546, 547, 547, 547, 547, 548, 548, 548, 548, 548, 548, 549, 550, 550, 550, 550, 550, 550, 551, 551, 551, 551, 551, 552, 552, 554, 554, 553, 553, 554, 554, 554, 554, 555, 555, 555, 555, 555, 556, 556, 556, 559, 557, 557, 557, 557, 557, 558, 558, 558, 559, 560, 560, 560, 560, 0, 0, 0, 0, 0, 0, 0, 0, 0, 0, 0, 0, 0, 0, 0, 0, 0, 0, 0, 0, 0, 0, 0, 0, 0, 0, 0, 0, 0, 0, 0, 0, 0, 0, 0, 0, 0, 0, 0, 0, 0, 0, 0, 0, 0, 0, 0, 0, 0, 0, 0, 0, 0, 0, 0, 0, 0, 0, 0, 0, 0, 0, 0, 0, 0, 0, 0, 0, 0, 0, 0, 0, 0, 0, 0, 0, 0, 0, 0, 0, 0, 0, 0, 0, 0, 0, 0, 0, 0, 0, 0, 0, 0, 0, 0, 0, 0, 0, 0, 0, 0, 0, 0, 0, 0, 0, 0, 0, 0, 0, 0, 0, 0, 0, 0, 0, 0, 0, 0, 0, 0, 0, 0, 0, 0, 0, 0, 0, 0, 0, 0, 0, 0, 0, 0, 0, 0, 0, 0, 0, 0, 0, 0, 0, 0, 0, 0, 0, 0, 0, 0, 0, 0, 0, 0, 0, 0, 0, 0, 0, 0, 0, 0, 0, 0, 0, 0, 0, 0, 0, 0, 0, 0, 0, 0, 0, 0, 0,
       0, 0, 0, 0, 0, 0, 0, 0, 0, 0, 0, 0, 0, 0, 0, 0, 0, 0, 0, 0, 0, 0, 0, 0, 0, 0, 0, 0, 0, 0, 0, 0, 0, 0, 0, 0, 0, 0, 0, 0, 0, 0, 0, 0, 0, 0, 0, 0, 0, 0, 0, 0, 0, 0, 0, 0, 0, 0, 0, 0, 0, 0, 0, 0, 0, 0, 0, 0, 0, 0, 0, 0, 0, 0, 0, 0, 0, 0, 0, 0, 0, 0, 0, 0, 0, 0, 0, 0, 0, 0, 0, 0, 0, 0, 0, 0, 0, 0, 0, 0, 0, 0, 0, 0, 0, 0, 0, 0, 0, 0, 0, 0, 0, 0, 0, 0, 0, 0, 0, 0, 0, 0, 0, 0, 0, 0, 0, 521, 521, 520, 520, 520, 520, 520, 520, 520, 520, 520, 520, 520, 520, 520, 520, 520, 520, 520, 520, 520, 520, 520, 520, 520, 520, 520, 520, 521, 520, 520, 520, 520, 520, 521, 521, 521, 521, 521, 522, 521, 521, 521, 521, 522, 522, 522, 521, 521, 522, 522, 522, 522, 523, 523, 523, 523, 523, 523, 523, 523, 523, 523, 523, 523, 523, 523, 523, 523, 523, 523, 523, 523, 523, 523, 523, 523, 523, 523, 523, 523, 524, 525, 525, 525, 525, 525, 525, 525, 525, 525, 525, 525, 525, 525, 525, 525, 526, 526, 526, 526, 526, 526, 526, 526, 526, 526, 526, 526, 526, 526, 526, 525, 525, 525, 526, 526, 526, 526, 527, 527, 527, 527, 527, 527, 527, 527, 527, 527, 527, 527, 527, 528, 528, 528, 528, 528, 528, 528, 527, 527, 528, 528, 528, 528, 528, 528, 528, 528, 528, 528, 528, 529, 529, 529, 529, 529, 529, 529, 529, 529, 529, 529, 529, 529, 529, 528, 528, 528, 528, 528, 528, 529, 529, 529, 529, 530, 530, 530, 530, 530, 531, 530, 530, 530, 530, 530, 530, 530, 530, 530, 530, 530, 531, 531, 531, 531, 531, 531, 532, 532, 532, 532, 532, 532, 533, 533, 533, 533, 533, 533, 533, 533, 533, 533, 533, 533, 534, 534, 535, 536, 536, 536, 536, 536, 536, 536, 536, 536, 536, 536, 537, 537, 537, 537, 537, 538, 538, 538, 538, 538, 538, 538, 537, 537, 538, 538, 538, 539, 539, 539, 539, 540, 540, 540, 540, 540, 541, 541, 541, 541, 541, 541, 542, 542, 542, 542, 542, 542, 543, 543, 543, 544, 544, 544, 544, 544, 545, 545, 545, 546, 546, 546, 547, 547, 547, 547, 547, 547, 547, 547, 548, 549, 549, 549, 549, 549, 549, 549, 549, 549, 549, 549, 549, 550, 552, 552, 552, 552, 554, 554, 553, 553, 554, 554, 554, 554, 554, 555, 555, 555, 555, 555, 556, 556, 556, 556, 557, 557, 557, 558, 558, 559, 559, 559, 559, 559, 559, 559, 0, 0, 560, 560, 0, 0, 0, 0, 0, 0, 0, 0, 0, 0, 0, 0, 0, 0, 0, 0, 0, 0, 0, 0, 0, 0, 0, 0, 0, 0, 0, 0, 0, 0, 0, 0, 0, 0, 0, 0, 0, 0, 0, 0, 0, 0, 0, 0, 0, 0, 0, 0, 0, 0, 0, 0, 0, 0, 0, 0, 0, 0, 0, 0, 0, 0, 0, 0, 0, 0, 0, 0, 0, 0, 0, 0, 0, 0, 0, 0, 0, 0, 0, 0, 0, 0, 0, 0, 0, 0, 0, 0, 0, 0, 0, 0, 0, 0, 0, 0, 0, 0, 0, 0, 0, 0, 0, 0, 0, 0, 0, 0, 0, 0, 0, 0, 0, 0, 0, 0, 0, 0, 0, 0, 0, 0, 0, 0, 0, 0, 0, 0, 0, 0, 0, 0, 0, 0, 0, 0, 0, 0, 0, 0, 0, 0, 0, 0, 0, 0, 0, 0, 0, 0, 0, 0, 0, 0, 0, 0, 0, 0, 0, 0, 0, 0, 0, 0, 0, 0, 0, 0, 0, 0,
       0, 0, 0, 0, 0, 0, 0, 0, 0, 0, 0, 0, 0, 0, 0, 0, 0, 0, 0, 0, 0, 0, 0, 0, 0, 0, 0, 0, 0, 0, 0, 0, 0, 0, 0, 0, 0, 0, 0, 0, 0, 0, 0, 0, 0, 0, 0, 0, 0, 0, 0, 0, 0, 0, 0, 0, 0, 0, 0, 0, 0, 0, 0, 0, 0, 0, 0, 0, 0, 0, 0, 0, 0, 0, 0, 0, 0, 0, 0, 0, 0, 0, 0, 0, 0, 0, 0, 0, 0, 0, 0, 0, 0, 0, 0, 0, 0, 0, 0, 0, 0, 0, 0, 0, 0, 0, 0, 0, 0, 0, 0, 0, 0, 0, 0, 0, 0, 0, 0, 0, 0, 0, 0, 0, 0, 0, 0, 520, 520, 520, 520, 520, 520, 520, 520, 520, 520, 520, 520, 520, 520, 520, 520, 520, 520, 520, 520, 520, 520, 520, 520, 520, 520, 520, 520, 521, 520, 520, 520, 520, 520, 521, 521, 521, 521, 521, 521, 521, 521, 521, 521, 522, 522, 522, 521, 521, 522, 522, 522, 522, 523, 523, 523, 523, 523, 523, 523, 523, 523, 523, 523, 523, 523, 523, 523, 523, 523, 523, 523, 523, 523, 523, 523, 523, 523, 523, 523, 523, 524, 524, 525, 525, 525, 525, 525, 525, 525, 525, 525, 525, 525, 525, 525, 526, 526, 526, 526, 526, 526, 526, 526, 526, 526, 526, 526, 526, 526, 526, 526, 525, 525, 525, 525, 525, 526, 526, 527, 527, 527, 527, 527, 527, 527, 527, 527, 527, 527, 527, 527, 527, 527, 527, 527, 527, 528, 527, 527, 527, 527, 528, 528, 528, 528, 528, 528, 528, 528, 528, 528, 529, 529, 528, 528, 528, 528, 528, 529, 529, 529, 528, 528, 528, 528, 528, 528, 528, 528, 528, 528, 530, 529, 529, 530, 530, 530, 530, 530, 530, 530, 530, 530, 530, 530, 530, 530, 530, 530, 530, 530, 531, 531, 531, 531, 531, 531, 531, 532, 532, 532, 532, 532, 532, 532, 533, 533, 533, 533, 533, 533, 533, 533, 533, 533, 533, 534, 534, 535, 535, 535, 536, 536, 536, 536, 536, 536, 536, 536, 536, 536, 536, 536, 537, 537, 537, 537, 537, 538, 537, 537, 538, 537, 537, 538, 538, 538, 538, 538, 538, 539, 539, 539, 540, 540, 540, 540, 541, 541, 541, 541, 541, 542, 542, 542, 542, 542, 542, 543, 543, 543, 543, 543, 544, 544, 544, 544, 544, 545, 545, 545, 545, 545, 545, 546, 546, 547, 547, 547, 547, 547, 548, 548, 548, 548, 548, 548, 548, 548, 548, 548, 549, 549, 549, 549, 551, 551, 551, 553, 553, 553, 553, 554, 554, 553, 553, 553, 554, 554, 554, 554, 554, 555, 555, 555, 556, 556, 556, 556, 557, 557, 557, 557, 557, 557, 557, 557, 557, 557, 558, 559, 560, 560, 560, 0, 0, 0, 0, 0, 0, 0, 0, 0, 0, 0, 0, 0, 0, 0, 0, 0, 0, 0, 0, 0, 0, 0, 0, 0, 0, 0, 0, 0, 0, 0, 0, 0, 0, 0, 0, 0, 0, 0, 0, 0, 0, 0, 0, 0, 0, 0, 0, 0, 0, 0, 0, 0, 0, 0, 0, 0, 0, 0, 0, 0, 0, 0, 0, 0, 0, 0, 0, 0, 0, 0, 0, 0, 0, 0, 0, 0, 0, 0, 0, 0, 0, 0, 0, 0, 0, 0, 0, 0, 0, 0, 0, 0, 0, 0, 0, 0, 0, 0, 0, 0, 0, 0, 0, 0, 0, 0, 0, 0, 0, 0, 0, 0, 0, 0, 0, 0, 0, 0, 0, 0, 0, 0, 0, 0, 0, 0, 0, 0, 0, 0, 0, 0, 0, 0, 0, 0, 0, 0, 0, 0, 0, 0, 0, 0, 0, 0, 0, 0, 0, 0, 0, 0, 0, 0, 0, 0, 0, 0, 0, 0, 0, 0, 0, 0, 0, 0, 0,
       0, 0, 0, 0, 0, 0, 0, 0, 0, 0, 0, 0, 0, 0, 0, 0, 0, 0, 0, 0, 0, 0, 0, 0, 0, 0, 0, 0, 0, 0, 0, 0, 0, 0, 0, 0, 0, 0, 0, 0, 0, 0, 0, 0, 0, 0, 0, 0, 0, 0, 0, 0, 0, 0, 0, 0, 0, 0, 0, 0, 0, 0, 0, 0, 0, 0, 0, 0, 0, 0, 0, 0, 0, 0, 0, 0, 0, 0, 0, 0, 0, 0, 0, 0, 0, 0, 0, 0, 0, 0, 0, 0, 0, 0, 0, 0, 0, 0, 0, 0, 0, 0, 0, 0, 0, 0, 0, 0, 0, 0, 0, 0, 0, 0, 0, 0, 0, 0, 0, 0, 0, 0, 0, 0, 0, 0, 520, 520, 520, 520, 520, 520, 520, 519, 519, 520, 520, 520, 520, 519, 519, 520, 520, 520, 520, 520, 520, 520, 520, 520, 520, 520, 520, 520, 520, 520, 521, 520, 520, 521, 521, 521, 521, 521, 521, 521, 521, 521, 521, 521, 521, 521, 522, 522, 522, 522, 522, 522, 522, 522, 523, 523, 523, 523, 523, 523, 523, 523, 523, 523, 523, 523, 523, 523, 523, 523, 523, 523, 523, 523, 523, 523, 523, 523, 523, 523, 523, 523, 524, 524, 524, 525, 525, 525, 525, 525, 525, 525, 525, 525, 525, 525, 525, 525, 526, 526, 526, 526, 526, 526, 526, 526, 526, 526, 526, 526, 526, 526, 526, 525, 525, 525, 525, 525, 526, 526, 527, 527, 527, 527, 527, 527, 527, 527, 527, 527, 527, 527, 527, 527, 527, 527, 527, 527, 528, 527, 527, 527, 527, 528, 528, 528, 528, 528, 528, 528, 528, 528, 528, 528, 528, 528, 528, 528, 528, 528, 529, 529, 529, 528, 528, 528, 528, 528, 528, 528, 528, 528, 528, 530, 530, 530, 530, 530, 530, 530, 530, 530, 530, 530, 530, 530, 530, 530, 530, 530, 530, 530, 530, 531, 531, 531, 531, 531, 531, 531, 532, 532, 532, 532, 532, 532, 532, 533, 533, 533, 533, 532, 532, 533, 533, 533, 533, 533, 534, 534, 535, 535, 535, 535, 535, 536, 536, 536, 536, 536, 536, 536, 536, 536, 536, 537, 537, 537, 537, 537, 537, 537, 537, 537, 537, 537, 537, 537, 537, 538, 537, 537, 538, 538, 539, 539, 539, 539, 540, 540, 540, 540, 541, 541, 541, 541, 541, 541, 541, 541, 542, 542, 542, 543, 543, 543, 543, 543, 544, 544, 544, 544, 544, 545, 545, 545, 545, 545, 545, 545, 546, 546, 547, 547, 547, 547, 548, 548, 548, 548, 548, 548, 548, 548, 548, 548, 548, 549, 549, 549, 551, 552, 552, 552, 552, 552, 552, 552, 552, 553, 553, 553, 553, 554, 554, 554, 555, 555, 555, 555, 556, 556, 556, 557, 556, 556, 556, 556, 556, 556, 557, 557, 558, 558, 559, 559, 559, 559, 0, 0, 0, 0, 0, 0, 0, 0, 0, 0, 0, 0, 0, 0, 0, 0, 0, 0, 0, 0, 0, 0, 0, 0, 0, 0, 0, 0, 0, 0, 0, 0, 0, 0, 0, 0, 0, 0, 0, 0, 0, 0, 0, 0, 0, 0, 0, 0, 0, 0, 0, 0, 0, 0, 0, 0, 0, 0, 0, 0, 0, 0, 0, 0, 0, 0, 0, 0, 0, 0, 0, 0, 0, 0, 0, 0, 0, 0, 0, 0, 0, 0, 0, 0, 0, 0, 0, 0, 0, 0, 0, 0, 0, 0, 0, 0, 0, 0, 0, 0, 0, 0, 0, 0, 0, 0, 0, 0, 0, 0, 0, 0, 0, 0, 0, 0, 0, 0, 0, 0, 0, 0, 0, 0, 0, 0, 0, 0, 0, 0, 0, 0, 0, 0, 0, 0, 0, 0, 0, 0, 0, 0, 0, 0, 0, 0, 0, 0, 0, 0, 0, 0, 0, 0, 0, 0, 0, 0, 0, 0, 0, 0, 0, 0, 0, 0,
       0, 0, 0, 0, 0, 0, 0, 0, 0, 0, 0, 0, 0, 0, 0, 0, 0, 0, 0, 0, 0, 0, 0, 0, 0, 0, 0, 0, 0, 0, 0, 0, 0, 0, 0, 0, 0, 0, 0, 0, 0, 0, 0, 0, 0, 0, 0, 0, 0, 0, 0, 0, 0, 0, 0, 0, 0, 0, 0, 0, 0, 0, 0, 0, 0, 0, 0, 0, 0, 0, 0, 0, 0, 0, 0, 0, 0, 0, 0, 0, 0, 0, 0, 0, 0, 0, 0, 0, 0, 0, 0, 0, 0, 0, 0, 0, 0, 0, 0, 0, 0, 0, 0, 0, 0, 0, 0, 0, 0, 0, 0, 0, 0, 0, 0, 0, 0, 0, 0, 0, 0, 0, 0, 0, 0, 0, 520, 520, 520, 520, 519, 519, 519, 519, 519, 519, 519, 519, 519, 519, 519, 519, 519, 519, 519, 520, 520, 520, 519, 519, 520, 520, 520, 520, 520, 520, 520, 520, 520, 520, 520, 521, 521, 521, 521, 521, 521, 521, 521, 521, 521, 521, 521, 522, 522, 522, 522, 523, 523, 523, 523, 523, 523, 523, 523, 523, 523, 523, 523, 523, 523, 523, 523, 523, 523, 523, 523, 523, 524, 523, 523, 523, 523, 523, 523, 523, 523, 523, 524, 524, 524, 525, 525, 525, 525, 525, 524, 524, 524, 525, 525, 525, 525, 525, 525, 526, 525, 525, 526, 526, 526, 526, 526, 526, 526, 526, 526, 526, 526, 526, 526, 526, 526, 526, 526, 526, 527, 527, 527, 527, 527, 527, 527, 527, 527, 527, 527, 527, 527, 527, 528, 528, 528, 528, 528, 527, 527, 527, 527, 528, 528, 528, 528, 528, 528, 528, 528, 528, 528, 528, 528, 528, 528, 528, 529, 529, 529, 529, 529, 528, 528, 528, 528, 528, 528, 528, 528, 528, 528, 530, 530, 530, 530, 530, 530, 530, 530, 530, 530, 531, 530, 530, 530, 530, 530, 530, 530, 530, 530, 531, 531, 531, 531, 531, 531, 531, 532, 532, 532, 532, 532, 532, 532, 533, 533, 533, 533, 532, 532, 532, 532, 533, 533, 533, 534, 534, 535, 535, 535, 535, 535, 536, 536, 536, 536, 536, 536, 536, 536, 536, 536, 536, 536, 537, 537, 537, 537, 537, 537, 537, 537, 537, 537, 537, 537, 537, 537, 537, 537, 538, 538, 538, 539, 539, 539, 540, 540, 540, 540, 540, 541, 541, 541, 541, 541, 541, 542, 542, 542, 542, 542, 542, 543, 543, 543, 543, 544, 544, 544, 544, 544, 544, 544, 545, 545, 545, 545, 545, 546, 546, 547, 547, 547, 547, 547, 547, 547, 547, 548, 548, 548, 548, 548, 548, 548, 549, 550, 550, 550, 550, 551, 551, 551, 551, 551, 552, 552, 553, 553, 553, 553, 553, 553, 554, 554, 554, 555, 555, 555, 555, 555, 555, 555, 555, 556, 556, 556, 556, 557, 557, 558, 558, 558, 557, 557, 557, 0, 0, 0, 0, 0, 0, 0, 0, 0, 0, 0, 0, 0, 0, 0, 0, 0, 0, 0, 0, 0, 0, 0, 0, 0, 0, 0, 0, 0, 0, 0, 0, 0, 0, 0, 0, 0, 0, 0, 0, 0, 0, 0, 0, 0, 0, 0, 0, 0, 0, 0, 0, 0, 0, 0, 0, 0, 0, 0, 0, 0, 0, 0, 0, 0, 0, 0, 0, 0, 0, 0, 0, 0, 0, 0, 0, 0, 0, 0, 0, 0, 0, 0, 0, 0, 0, 0, 0, 0, 0, 0, 0, 0, 0, 0, 0, 0, 0, 0, 0, 0, 0, 0, 0, 0, 0, 0, 0, 0, 0, 0, 0, 0, 0, 0, 0, 0, 0, 0, 0, 0, 0, 0, 0, 0, 0, 0, 0, 0, 0, 0, 0, 0, 0, 0, 0, 0, 0, 0, 0, 0, 0, 0, 0, 0, 0, 0, 0, 0, 0, 0, 0, 0, 0, 0, 0, 0, 0, 0, 0, 0, 0, 0, 0,
       0, 0, 0, 0, 0, 0, 0, 0, 0, 0, 0, 0, 0, 0, 0, 0, 0, 0, 0, 0, 0, 0, 0, 0, 0, 0, 0, 0, 0, 0, 0, 0, 0, 0, 0, 0, 0, 0, 0, 0, 0, 0, 0, 0, 0, 0, 0, 0, 0, 0, 0, 0, 0, 0, 0, 0, 0, 0, 0, 0, 0, 0, 0, 0, 0, 0, 0, 0, 0, 0, 0, 0, 0, 0, 0, 0, 0, 0, 0, 0, 0, 0, 0, 0, 0, 0, 0, 0, 0, 0, 0, 0, 0, 0, 0, 0, 0, 0, 0, 0, 0, 0, 0, 0, 0, 0, 0, 0, 0, 0, 0, 0, 0, 0, 0, 0, 0, 0, 0, 0, 0, 0, 0, 0, 0, 547, 546, 520, 520, 520, 519, 519, 519, 519, 519, 519, 519, 519, 519, 519, 519, 519, 519, 519, 519, 520, 520, 520, 519, 519, 520, 520, 520, 520, 520, 520, 520, 520, 520, 520, 520, 521, 521, 521, 521, 521, 521, 521, 521, 521, 521, 521, 521, 522, 522, 522, 522, 523, 523, 523, 523, 523, 523, 523, 523, 523, 523, 523, 523, 523, 523, 523, 523, 523, 523, 523, 523, 523, 524, 523, 523, 523, 523, 523, 523, 523, 523, 523, 524, 525, 525, 525, 525, 525, 525, 525, 524, 524, 524, 525, 525, 525, 525, 525, 525, 525, 525, 525, 526, 526, 526, 526, 526, 526, 526, 526, 526, 526, 526, 526, 526, 526, 526, 526, 526, 526, 527, 527, 527, 527, 527, 527, 527, 527, 527, 527, 527, 527, 527, 527, 528, 528, 528, 528, 528, 528, 527, 527, 528, 528, 528, 528, 528, 528, 529, 529, 528, 528, 528, 528, 528, 528, 528, 528, 529, 529, 529, 529, 529, 529, 529, 529, 529, 529, 528, 528, 528, 528, 528, 530, 530, 530, 530, 530, 530, 531, 531, 531, 531, 531, 531, 531, 531, 531, 531, 531, 531, 531, 531, 531, 531, 531, 531, 531, 531, 531, 532, 532, 532, 532, 532, 533, 533, 533, 533, 532, 532, 532, 532, 532, 532, 532, 533, 533, 534, 534, 534, 534, 534, 535, 535, 535, 535, 536, 536, 536, 536, 536, 536, 536, 536, 536, 536, 536, 536, 536, 537, 537, 537, 537, 537, 537, 537, 537, 537, 537, 537, 537, 537, 538, 538, 538, 538, 539, 539, 539, 540, 540, 540, 540, 541, 541, 541, 541, 541, 541, 541, 541, 542, 542, 542, 542, 542, 542, 542, 543, 543, 543, 543, 544, 544, 544, 544, 544, 544, 545, 545, 545, 545, 545, 546, 546, 546, 546, 546, 547, 547, 547, 547, 547, 547, 547, 547, 547, 547, 549, 549, 549, 549, 549, 550, 550, 550, 550, 550, 551, 551, 552, 552, 552, 552, 553, 553, 553, 553, 553, 554, 555, 555, 555, 555, 555, 555, 555, 555, 555, 556, 556, 556, 556, 557, 557, 557, 557, 557, 557, 557, 0, 0, 0, 0, 0, 0, 0, 0, 0, 0, 0, 0, 0, 0, 0, 0, 0, 0, 0, 0, 0, 0, 0, 0, 0, 0, 0, 0, 0, 0, 0, 0, 0, 0, 0, 0, 0, 0, 0, 0, 0, 0, 0, 0, 0, 0, 0, 0, 0, 0, 0, 0, 0, 0, 0, 0, 0, 0, 0, 0, 0, 0, 0, 0, 0, 0, 0, 0, 0, 0, 0, 0, 0, 0, 0, 0, 0, 0, 0, 0, 0, 0, 0, 0, 0, 0, 0, 0, 0, 0, 0, 0, 0, 0, 0, 0, 0, 0, 0, 0, 0, 0, 0, 0, 0, 0, 0, 0, 0, 0, 0, 0, 0, 0, 0, 0, 0, 0, 0, 0, 0, 0, 0, 0, 0, 0, 0, 0, 0, 0, 0, 0, 0, 0, 0, 0, 0, 0, 0, 0, 0, 0, 0, 0, 0, 0, 0, 0, 0, 0, 0, 0, 0, 0, 0, 0, 0, 0, 0, 0, 0, 0, 0,
       0, 0, 0, 0, 0, 0, 0, 0, 0, 0, 0, 0, 0, 0, 0, 0, 0, 0, 0, 0, 0, 0, 0, 0, 0, 0, 0, 0, 0, 0, 0, 0, 0, 0, 0, 0, 0, 0, 0, 0, 0, 0, 0, 0, 0, 0, 0, 0, 0, 0, 0, 0, 0, 0, 0, 0, 0, 0, 0, 0, 0, 0, 0, 0, 0, 0, 0, 0, 0, 0, 0, 0, 0, 0, 0, 0, 0, 0, 0, 0, 0, 0, 0, 0, 0, 0, 0, 0, 0, 0, 0, 0, 0, 0, 0, 0, 0, 0, 0, 0, 0, 0, 0, 0, 0, 0, 0, 0, 0, 0, 0, 0, 0, 0, 0, 0, 0, 0, 0, 0, 0, 0, 0, 0, 0, 545, 545, 520, 520, 519, 519, 519, 519, 519, 519, 519, 519, 519, 519, 519, 519, 519, 519, 520, 520, 520, 520, 520, 519, 519, 520, 520, 520, 520, 520, 520, 520, 520, 520, 521, 521, 521, 521, 521, 521, 521, 521, 521, 521, 521, 521, 521, 521, 521, 522, 522, 523, 523, 523, 523, 523, 523, 523, 523, 523, 523, 523, 523, 523, 523, 523, 523, 523, 523, 523, 523, 523, 523, 524, 524, 524, 523, 523, 523, 523, 523, 523, 523, 524, 525, 525, 525, 525, 525, 525, 525, 524, 524, 525, 525, 525, 525, 525, 525, 525, 525, 526, 526, 526, 526, 526, 526, 526, 526, 526, 526, 526, 526, 526, 526, 526, 526, 526, 526, 526, 527, 527, 527, 527, 527, 527, 527, 527, 527, 527, 527, 527, 527, 527, 527, 528, 528, 528, 528, 528, 528, 528, 528, 528, 528, 528, 528, 529, 529, 529, 529, 529, 528, 528, 528, 528, 528, 528, 528, 529, 529, 529, 529, 529, 529, 529, 529, 529, 529, 529, 528, 528, 529, 529, 530, 530, 530, 530, 531, 531, 531, 531, 531, 531, 531, 531, 531, 531, 531, 531, 531, 531, 531, 531, 531, 531, 531, 531, 531, 531, 532, 532, 532, 532, 532, 532, 533, 533, 533, 532, 532, 532, 532, 532, 532, 532, 532, 533, 533, 534, 534, 534, 534, 534, 535, 535, 535, 535, 536, 536, 536, 536, 536, 536, 536, 536, 536, 536, 536, 536, 536, 536, 536, 536, 537, 537, 537, 537, 537, 537, 537, 537, 537, 537, 538, 538, 538, 538, 539, 539, 539, 539, 539, 540, 540, 541, 541, 541, 541, 541, 541, 541, 541, 541, 541, 541, 542, 541, 541, 542, 542, 542, 542, 543, 543, 544, 544, 544, 544, 544, 544, 544, 544, 544, 545, 545, 545, 545, 545, 546, 546, 546, 546, 546, 546, 546, 547, 547, 547, 547, 548, 548, 548, 549, 549, 549, 549, 549, 549, 549, 550, 550, 551, 551, 552, 552, 552, 552, 552, 552, 552, 553, 553, 554, 554, 554, 555, 555, 555, 555, 555, 555, 555, 556, 556, 556, 556, 556, 557, 557, 557, 557, 557, 557, 0, 0, 0, 0, 0, 0, 0, 0, 0, 0, 0, 0, 0, 0, 0, 0, 0, 0, 0, 0, 0, 0, 0, 0, 0, 0, 0, 0, 0, 0, 0, 0, 0, 0, 0, 0, 0, 0, 0, 0, 0, 0, 0, 0, 0, 0, 0, 0, 0, 0, 0, 0, 0, 0, 0, 0, 0, 0, 0, 0, 0, 0, 0, 0, 0, 0, 0, 0, 0, 0, 0, 0, 0, 0, 0, 0, 0, 0, 0, 0, 0, 0, 0, 0, 0, 0, 0, 0, 0, 0, 0, 0, 0, 0, 0, 0, 0, 0, 0, 0, 0, 0, 0, 0, 0, 0, 0, 0, 0, 0, 0, 0, 0, 0, 0, 0, 0, 0, 0, 0, 0, 0, 0, 0, 0, 0, 0, 0, 0, 0, 0, 0, 0, 0, 0, 0, 0, 0, 0, 0, 0, 0, 0, 0, 0, 0, 0, 0, 0, 0, 0, 0, 0, 0, 0, 0, 0, 0, 0, 0, 0,
       0, 0, 0, 0, 0, 0, 0, 0, 0, 0, 0, 0, 0, 0, 0, 0, 0, 0, 0, 0, 0, 0, 0, 0, 0, 0, 0, 0, 0, 0, 0, 0, 0, 0, 0, 0, 0, 0, 0, 0, 0, 0, 0, 0, 0, 0, 0, 0, 0, 0, 0, 0, 0, 0, 0, 0, 0, 0, 0, 0, 0, 0, 0, 0, 0, 0, 0, 0, 0, 0, 0, 0, 0, 0, 0, 0, 0, 0, 0, 0, 0, 0, 0, 0, 0, 0, 0, 0, 0, 0, 0, 0, 0, 0, 0, 0, 0, 0, 0, 0, 0, 0, 0, 0, 0, 0, 0, 0, 0, 0, 0, 0, 0, 0, 0, 0, 0, 0, 0, 0, 0, 0, 0, 0, 543, 543, 544, 544, 520, 519, 519, 519, 519, 519, 519, 519, 519, 519, 519, 519, 519, 519, 519, 519, 519, 520, 520, 520, 519, 519, 520, 520, 520, 520, 520, 520, 520, 520, 520, 521, 521, 521, 522, 521, 521, 521, 521, 521, 521, 521, 521, 521, 521, 521, 522, 522, 523, 523, 523, 523, 523, 523, 523, 523, 523, 523, 523, 523, 523, 523, 523, 523, 523, 523, 523, 523, 523, 523, 524, 524, 524, 523, 523, 523, 523, 523, 523, 523, 524, 525, 525, 525, 525, 525, 525, 525, 525, 525, 525, 525, 525, 525, 525, 525, 525, 526, 526, 526, 527, 527, 527, 526, 526, 527, 526, 526, 526, 526, 526, 527, 526, 526, 527, 527, 527, 527, 527, 527, 527, 527, 527, 527, 527, 527, 527, 527, 527, 528, 528, 528, 528, 528, 528, 528, 528, 528, 528, 528, 528, 528, 529, 529, 529, 529, 529, 529, 529, 529, 529, 529, 528, 528, 528, 529, 529, 529, 529, 529, 529, 529, 529, 529, 529, 529, 529, 529, 529, 529, 529, 530, 530, 530, 531, 531, 531, 531, 531, 531, 531, 531, 531, 531, 531, 531, 531, 531, 531, 531, 531, 531, 531, 531, 531, 531, 531, 532, 532, 532, 532, 532, 532, 532, 532, 532, 532, 532, 532, 532, 532, 532, 533, 533, 533, 533, 534, 534, 535, 535, 535, 535, 535, 535, 535, 535, 535, 536, 536, 536, 536, 536, 536, 536, 536, 536, 536, 536, 536, 536, 536, 537, 537, 537, 537, 537, 537, 537, 537, 537, 537, 537, 537, 538, 538, 538, 539, 539, 539, 539, 539, 540, 541, 541, 541, 541, 541, 541, 541, 541, 541, 541, 541, 541, 541, 541, 541, 541, 542, 542, 542, 542, 543, 543, 544, 544, 544, 544, 544, 544, 544, 544, 544, 544, 544, 545, 545, 545, 545, 545, 545, 545, 546, 546, 546, 546, 547, 548, 548, 548, 548, 548, 548, 548, 549, 549, 549, 549, 549, 550, 550, 551, 551, 551, 551, 551, 551, 552, 552, 553, 553, 553, 553, 554, 554, 554, 555, 555, 555, 555, 555, 555, 555, 555, 555, 556, 556, 556, 557, 557, 557, 0, 0, 0, 0, 0, 0, 0, 0, 0, 0, 0, 0, 0, 0, 0, 0, 0, 0, 0, 0, 0, 0, 0, 0, 0, 0, 0, 0, 0, 0, 0, 0, 0, 0, 0, 0, 0, 0, 0, 0, 0, 0, 0, 0, 0, 0, 0, 0, 0, 0, 0, 0, 0, 0, 0, 0, 0, 0, 0, 0, 0, 0, 0, 0, 0, 0, 0, 0, 0, 0, 0, 0, 0, 0, 0, 0, 0, 0, 0, 0, 0, 0, 0, 0, 0, 0, 0, 0, 0, 0, 0, 0, 0, 0, 0, 0, 0, 0, 0, 0, 0, 0, 0, 0, 0, 0, 0, 0, 0, 0, 0, 0, 0, 0, 0, 0, 0, 0, 0, 0, 0, 0, 0, 0, 0, 0, 0, 0, 0, 0, 0, 0, 0, 0, 0, 0, 0, 0, 0, 0, 0, 0, 0, 0, 0, 0, 0, 0, 0, 0, 0, 0, 0, 0, 0, 0, 0, 0, 0, 0, 0,
       0, 0, 0, 0, 0, 0, 0, 0, 0, 0, 0, 0, 0, 0, 0, 0, 0, 0, 0, 0, 0, 0, 0, 0, 0, 0, 0, 0, 0, 0, 0, 0, 0, 0, 0, 0, 0, 0, 0, 0, 0, 0, 0, 0, 0, 0, 0, 0, 0, 0, 0, 0, 0, 0, 0, 0, 0, 0, 0, 0, 0, 0, 0, 0, 0, 0, 0, 0, 0, 0, 0, 0, 0, 0, 0, 0, 0, 0, 0, 0, 0, 0, 0, 0, 0, 0, 0, 0, 0, 0, 0, 0, 0, 0, 0, 0, 0, 0, 0, 0, 0, 0, 0, 0, 0, 0, 0, 0, 0, 0, 0, 0, 0, 0, 0, 0, 0, 0, 0, 0, 0, 0, 0, 544, 543, 543, 544, 544, 520, 519, 519, 519, 519, 519, 519, 519, 519, 519, 519, 519, 519, 519, 519, 519, 519, 520, 520, 520, 519, 519, 520, 520, 520, 520, 520, 520, 520, 520, 520, 521, 521, 521, 521, 521, 521, 521, 521, 521, 521, 521, 521, 521, 521, 522, 522, 522, 523, 523, 523, 523, 523, 523, 523, 523, 523, 523, 523, 523, 523, 523, 523, 523, 523, 523, 523, 523, 524, 524, 524, 524, 524, 524, 524, 523, 523, 524, 524, 524, 525, 525, 525, 525, 525, 525, 525, 525, 525, 525, 525, 525, 525, 525, 525, 526, 526, 526, 527, 527, 527, 527, 527, 527, 527, 527, 527, 526, 526, 526, 526, 527, 527, 527, 527, 527, 527, 527, 527, 527, 527, 527, 527, 527, 527, 528, 528, 528, 528, 528, 528, 528, 528, 528, 528, 528, 528, 528, 528, 529, 529, 529, 529, 529, 529, 529, 529, 529, 530, 530, 530, 529, 529, 529, 529, 529, 529, 529, 529, 529, 529, 529, 529, 529, 529, 529, 529, 529, 529, 529, 529, 531, 531, 531, 531, 531, 531, 531, 531, 531, 531, 531, 531, 531, 531, 531, 531, 531, 531, 531, 531, 531, 531, 531, 531, 531, 531, 532, 532, 532, 532, 532, 532, 532, 532, 532, 532, 532, 532, 532, 532, 533, 533, 533, 533, 533, 534, 534, 534, 535, 535, 535, 535, 535, 535, 535, 535, 536, 536, 536, 536, 536, 536, 536, 536, 536, 536, 536, 536, 536, 536, 537, 537, 537, 537, 537, 537, 537, 537, 537, 537, 537, 537, 538, 538, 538, 539, 539, 539, 539, 539, 539, 541, 541, 541, 541, 541, 541, 541, 541, 541, 541, 541, 541, 541, 541, 541, 541, 541, 541, 542, 542, 542, 543, 543, 543, 543, 543, 543, 543, 544, 544, 544, 544, 544, 544, 544, 545, 545, 545, 545, 545, 545, 546, 546, 546, 546, 547, 547, 547, 547, 548, 548, 548, 548, 549, 549, 549, 549, 549, 549, 549, 550, 550, 550, 550, 550, 551, 552, 552, 552, 552, 552, 553, 553, 553, 554, 554, 555, 555, 555, 555, 555, 555, 555, 555, 555, 555, 556, 556, 556, 0, 0, 0, 0, 0, 0, 0, 0, 0, 0, 0, 0, 0, 0, 0, 0, 0, 0, 0, 0, 0, 0, 0, 0, 0, 0, 0, 0, 0, 0, 0, 0, 0, 0, 0, 0, 0, 0, 0, 0, 0, 0, 0, 0, 0, 0, 0, 0, 0, 0, 0, 0, 0, 0, 0, 0, 0, 0, 0, 0, 0, 0, 0, 0, 0, 0, 0, 0, 0, 0, 0, 0, 0, 0, 0, 0, 0, 0, 0, 0, 0, 0, 0, 0, 0, 0, 0, 0, 0, 0, 0, 0, 0, 0, 0, 0, 0, 0, 0, 0, 0, 0, 0, 0, 0, 0, 0, 0, 0, 0, 0, 0, 0, 0, 0, 0, 0, 0, 0, 0, 0, 0, 0, 0, 0, 0, 0, 0, 0, 0, 0, 0, 0, 0, 0, 0, 0, 0, 0, 0, 0, 0, 0, 0, 0, 0, 0, 0, 0, 0, 0, 0, 0, 0, 0, 0, 0, 0, 0, 0, 0,
       0, 0, 0, 0, 0, 0, 0, 0, 0, 0, 0, 0, 0, 0, 0, 0, 0, 0, 0, 0, 0, 0, 0, 0, 0, 0, 0, 0, 0, 0, 0, 0, 0, 0, 0, 0, 0, 0, 0, 0, 0, 0, 0, 0, 0, 0, 0, 0, 0, 0, 0, 0, 0, 0, 0, 0, 0, 0, 0, 0, 0, 0, 0, 0, 0, 0, 0, 0, 0, 0, 0, 0, 0, 0, 0, 0, 0, 0, 0, 0, 0, 0, 0, 0, 0, 0, 0, 0, 0, 0, 0, 0, 0, 0, 0, 0, 0, 0, 0, 0, 0, 0, 0, 0, 0, 0, 0, 0, 0, 0, 0, 0, 0, 0, 0, 0, 0, 0, 0, 0, 0, 0, 541, 541, 543, 543, 544, 544, 520, 519, 519, 519, 519, 519, 519, 519, 519, 519, 519, 519, 519, 519, 520, 520, 520, 520, 520, 520, 520, 520, 520, 520, 520, 520, 520, 520, 520, 520, 520, 521, 521, 521, 521, 522, 521, 521, 521, 521, 521, 521, 522, 522, 522, 522, 522, 523, 523, 523, 523, 523, 523, 523, 523, 523, 523, 523, 523, 523, 523, 523, 523, 523, 523, 523, 523, 523, 524, 524, 524, 524, 524, 524, 524, 524, 524, 524, 524, 524, 525, 525, 525, 525, 525, 525, 525, 525, 525, 525, 526, 526, 526, 526, 526, 526, 527, 527, 527, 527, 527, 527, 527, 527, 527, 527, 527, 526, 526, 526, 526, 527, 527, 527, 527, 527, 527, 527, 527, 527, 527, 527, 527, 527, 527, 528, 528, 528, 528, 528, 528, 528, 528, 528, 528, 528, 528, 529, 529, 529, 529, 529, 529, 529, 529, 529, 530, 530, 530, 530, 530, 530, 530, 530, 529, 529, 529, 529, 529, 529, 529, 529, 529, 530, 530, 530, 529, 529, 530, 530, 530, 531, 531, 531, 531, 531, 531, 532, 532, 532, 532, 532, 532, 532, 532, 532, 532, 532, 532, 532, 532, 532, 532, 531, 531, 532, 532, 532, 532, 532, 533, 533, 533, 533, 533, 533, 533, 533, 533, 533, 533, 533, 533, 533, 533, 533, 534, 534, 534, 535, 535, 535, 535, 535, 535, 535, 535, 536, 536, 536, 536, 536, 536, 536, 536, 536, 536, 536, 536, 536, 536, 537, 537, 537, 537, 537, 537, 537, 537, 537, 537, 537, 537, 538, 538, 538, 538, 539, 539, 539, 539, 539, 541, 541, 541, 541, 541, 541, 541, 541, 541, 541, 541, 541, 541, 541, 541, 541, 541, 541, 541, 542, 542, 543, 543, 543, 543, 543, 543, 543, 543, 543, 543, 543, 543, 544, 544, 544, 544, 544, 545, 545, 545, 545, 545, 545, 546, 547, 547, 547, 547, 548, 548, 548, 548, 548, 548, 548, 548, 548, 548, 549, 549, 549, 550, 550, 550, 550, 551, 551, 551, 551, 552, 552, 552, 553, 553, 553, 554, 554, 554, 554, 554, 555, 555, 555, 555, 555, 555, 555, 556, 0, 0, 0, 0, 0, 0, 0, 0, 0, 0, 0, 0, 0, 0, 0, 0, 0, 0, 0, 0, 0, 0, 0, 0, 0, 0, 0, 0, 0, 0, 0, 0, 0, 0, 0, 0, 0, 0, 0, 0, 0, 0, 0, 0, 0, 0, 0, 0, 0, 0, 0, 0, 0, 0, 0, 0, 0, 0, 0, 0, 0, 0, 0, 0, 0, 0, 0, 0, 0, 0, 0, 0, 0, 0, 0, 0, 0, 0, 0, 0, 0, 0, 0, 0, 0, 0, 0, 0, 0, 0, 0, 0, 0, 0, 0, 0, 0, 0, 0, 0, 0, 0, 0, 0, 0, 0, 0, 0, 0, 0, 0, 0, 0, 0, 0, 0, 0, 0, 0, 0, 0, 0, 0, 0, 0, 0, 0, 0, 0, 0, 0, 0, 0, 0, 0, 0, 0, 0, 0, 0, 0, 0, 0, 0, 0, 0, 0, 0, 0, 0, 0, 0, 0, 0, 0, 0, 0, 0, 0, 0, 0,
       0, 0, 0, 0, 0, 0, 0, 0, 0, 0, 0, 0, 0, 0, 0, 0, 0, 0, 0, 0, 0, 0, 0, 0, 0, 0, 0, 0, 0, 0, 0, 0, 0, 0, 0, 0, 0, 0, 0, 0, 0, 0, 0, 0, 0, 0, 0, 0, 0, 0, 0, 0, 0, 0, 0, 0, 0, 0, 0, 0, 0, 0, 0, 0, 0, 0, 0, 0, 0, 0, 0, 0, 0, 0, 0, 0, 0, 0, 0, 0, 0, 0, 0, 0, 0, 0, 0, 0, 0, 0, 0, 0, 0, 0, 0, 0, 0, 0, 0, 0, 0, 0, 0, 0, 0, 0, 0, 0, 0, 0, 0, 0, 0, 0, 0, 0, 0, 0, 0, 0, 0, 0, 541, 541, 543, 543, 544, 544, 544, 520, 520, 519, 519, 519, 519, 519, 519, 519, 519, 519, 519, 520, 520, 520, 520, 520, 520, 520, 520, 520, 520, 520, 520, 520, 520, 520, 520, 520, 520, 521, 521, 521, 522, 522, 522, 522, 522, 522, 522, 522, 522, 522, 522, 523, 523, 523, 523, 523, 523, 523, 523, 523, 523, 523, 523, 523, 523, 523, 523, 523, 523, 523, 523, 523, 524, 524, 524, 524, 524, 524, 524, 524, 524, 524, 524, 524, 524, 525, 525, 525, 526, 526, 526, 526, 526, 526, 526, 526, 526, 526, 526, 526, 526, 526, 527, 527, 527, 527, 527, 527, 527, 527, 527, 527, 527, 527, 527, 527, 527, 527, 527, 527, 527, 527, 527, 527, 527, 527, 527, 527, 527, 527, 527, 528, 528, 528, 528, 528, 528, 528, 528, 528, 529, 529, 529, 529, 529, 530, 530, 530, 530, 530, 530, 530, 530, 530, 531, 531, 531, 531, 531, 531, 529, 529, 529, 530, 530, 530, 529, 529, 529, 530, 530, 530, 530, 530, 530, 530, 531, 531, 531, 531, 531, 532, 532, 532, 532, 532, 532, 533, 532, 532, 532, 532, 532, 532, 532, 532, 532, 532, 532, 532, 532, 532, 532, 532, 532, 533, 533, 533, 533, 533, 533, 533, 533, 533, 533, 533, 533, 533, 533, 533, 533, 533, 534, 534, 535, 535, 535, 535, 536, 536, 536, 536, 536, 536, 536, 536, 536, 536, 536, 536, 536, 536, 536, 536, 536, 536, 536, 536, 536, 537, 537, 537, 537, 537, 537, 537, 537, 537, 537, 537, 537, 538, 538, 539, 539, 539, 539, 539, 541, 541, 541, 541, 541, 541, 541, 541, 541, 541, 541, 541, 541, 541, 541, 541, 541, 541, 541, 541, 542, 542, 542, 542, 543, 542, 542, 542, 542, 542, 542, 542, 543, 543, 543, 544, 544, 544, 544, 544, 545, 545, 545, 545, 545, 547, 547, 547, 547, 547, 548, 548, 548, 548, 548, 547, 547, 547, 547, 548, 549, 549, 549, 549, 549, 549, 550, 550, 550, 550, 551, 551, 552, 552, 552, 552, 552, 553, 553, 553, 553, 554, 554, 555, 555, 555, 555, 555, 555, 0, 0, 0, 0, 0, 0, 0, 0, 0, 0, 0, 0, 0, 0, 0, 0, 0, 0, 0, 0, 0, 0, 0, 0, 0, 0, 0, 0, 0, 0, 0, 0, 0, 0, 0, 0, 0, 0, 0, 0, 0, 0, 0, 0, 0, 0, 0, 0, 0, 0, 0, 0, 0, 0, 0, 0, 0, 0, 0, 0, 0, 0, 0, 0, 0, 0, 0, 0, 0, 0, 0, 0, 0, 0, 0, 0, 0, 0, 0, 0, 0, 0, 0, 0, 0, 0, 0, 0, 0, 0, 0, 0, 0, 0, 0, 0, 0, 0, 0, 0, 0, 0, 0, 0, 0, 0, 0, 0, 0, 0, 0, 0, 0, 0, 0, 0, 0, 0, 0, 0, 0, 0, 0, 0, 0, 0, 0, 0, 0, 0, 0, 0, 0, 0, 0, 0, 0, 0, 0, 0, 0, 0, 0, 0, 0, 0, 0, 0, 0, 0, 0, 0, 0, 0, 0, 0, 0, 0, 0, 0, 0,
       0, 0, 0, 0, 0, 0, 0, 0, 0, 0, 0, 0, 0, 0, 0, 0, 0, 0, 0, 0, 0, 0, 0, 0, 0, 0, 0, 0, 0, 0, 0, 0, 0, 0, 0, 0, 0, 0, 0, 0, 0, 0, 0, 0, 0, 0, 0, 0, 0, 0, 0, 0, 0, 0, 0, 0, 0, 0, 0, 0, 0, 0, 0, 0, 0, 0, 0, 0, 0, 0, 0, 0, 0, 0, 0, 0, 0, 0, 0, 0, 0, 0, 0, 0, 0, 0, 0, 0, 0, 0, 0, 0, 0, 0, 0, 0, 0, 0, 0, 0, 0, 0, 0, 0, 0, 0, 0, 0, 0, 0, 0, 0, 0, 0, 0, 0, 0, 0, 0, 0, 0, 0, 543, 543, 543, 543, 543, 543, 520, 520, 520, 520, 520, 520, 519, 519, 519, 519, 519, 519, 520, 520, 520, 520, 520, 520, 520, 520, 520, 520, 520, 520, 520, 520, 520, 520, 520, 520, 521, 521, 521, 521, 522, 522, 522, 522, 522, 522, 522, 522, 522, 523, 523, 523, 523, 523, 523, 523, 523, 523, 523, 523, 523, 523, 523, 523, 523, 523, 523, 523, 523, 523, 523, 524, 524, 524, 524, 524, 524, 524, 524, 524, 524, 524, 524, 524, 525, 525, 526, 526, 527, 527, 527, 527, 526, 526, 526, 526, 527, 527, 527, 527, 527, 527, 527, 527, 527, 527, 527, 527, 527, 527, 527, 527, 527, 527, 527, 527, 527, 527, 527, 527, 527, 527, 527, 527, 527, 527, 527, 527, 527, 527, 527, 528, 528, 528, 528, 528, 528, 528, 528, 529, 529, 529, 529, 529, 530, 530, 530, 530, 530, 530, 530, 530, 531, 531, 531, 531, 531, 531, 531, 531, 531, 530, 530, 530, 530, 530, 530, 530, 530, 531, 530, 530, 530, 530, 531, 531, 531, 531, 532, 532, 532, 532, 532, 532, 532, 533, 533, 533, 533, 533, 533, 533, 533, 532, 532, 532, 532, 532, 532, 532, 532, 532, 532, 533, 533, 533, 533, 533, 533, 533, 533, 533, 533, 533, 533, 533, 533, 533, 533, 533, 533, 533, 534, 534, 535, 535, 536, 536, 536, 536, 536, 536, 536, 536, 536, 536, 536, 536, 536, 536, 536, 536, 536, 536, 536, 536, 536, 536, 536, 537, 537, 537, 537, 537, 537, 537, 537, 537, 537, 537, 537, 538, 538, 538, 539, 539, 539, 539, 541, 541, 541, 541, 541, 541, 541, 541, 541, 541, 541, 541, 541, 541, 541, 541, 541, 541, 541, 541, 542, 542, 542, 542, 542, 542, 542, 542, 542, 542, 542, 542, 542, 542, 543, 543, 543, 544, 544, 544, 544, 544, 545, 545, 545, 546, 546, 547, 547, 547, 547, 547, 547, 547, 547, 547, 547, 547, 547, 547, 548, 548, 549, 549, 549, 549, 550, 550, 550, 550, 550, 550, 551, 551, 551, 551, 551, 552, 552, 552, 553, 553, 553, 554, 554, 555, 555, 555, 555, 555, 0, 0, 0, 0, 0, 0, 0, 0, 0, 0, 0, 0, 0, 0, 0, 0, 0, 0, 0, 0, 0, 0, 0, 0, 0, 0, 0, 0, 0, 0, 0, 0, 0, 0, 0, 0, 0, 0, 0, 0, 0, 0, 0, 0, 0, 0, 0, 0, 0, 0, 0, 0, 0, 0, 0, 0, 0, 0, 0, 0, 0, 0, 0, 0, 0, 0, 0, 0, 0, 0, 0, 0, 0, 0, 0, 0, 0, 0, 0, 0, 0, 0, 0, 0, 0, 0, 0, 0, 0, 0, 0, 0, 0, 0, 0, 0, 0, 0, 0, 0, 0, 0, 0, 0, 0, 0, 0, 0, 0, 0, 0, 0, 0, 0, 0, 0, 0, 0, 0, 0, 0, 0, 0, 0, 0, 0, 0, 0, 0, 0, 0, 0, 0, 0, 0, 0, 0, 0, 0, 0, 0, 0, 0, 0, 0, 0, 0, 0, 0, 0, 0, 0, 0, 0, 0, 0, 0, 0, 0, 0,
       0, 0, 0, 0, 0, 0, 0, 0, 0, 0, 0, 0, 0, 0, 0, 0, 0, 0, 0, 0, 0, 0, 0, 0, 0, 0, 0, 0, 0, 0, 0, 0, 0, 0, 0, 0, 0, 0, 0, 0, 0, 0, 0, 0, 0, 0, 0, 0, 0, 0, 0, 0, 0, 0, 0, 0, 0, 0, 0, 0, 0, 0, 0, 0, 0, 0, 0, 0, 0, 0, 0, 0, 0, 0, 0, 0, 0, 0, 0, 0, 0, 0, 0, 0, 0, 0, 0, 0, 0, 0, 0, 0, 0, 0, 0, 0, 0, 0, 0, 0, 0, 0, 0, 0, 0, 0, 0, 0, 0, 0, 0, 0, 0, 0, 0, 0, 0, 0, 0, 0, 0, 545, 543, 543, 543, 543, 543, 543, 520, 520, 520, 520, 520, 520, 520, 520, 520, 520, 520, 520, 520, 520, 521, 520, 520, 521, 520, 520, 520, 520, 520, 520, 521, 521, 521, 521, 521, 522, 521, 521, 522, 522, 522, 523, 522, 522, 523, 523, 523, 523, 523, 523, 523, 523, 523, 523, 523, 523, 523, 523, 523, 524, 524, 523, 523, 523, 523, 523, 523, 523, 523, 524, 524, 524, 524, 524, 524, 524, 524, 524, 524, 524, 524, 524, 524, 525, 525, 525, 526, 526, 527, 527, 527, 527, 527, 527, 527, 527, 527, 527, 527, 527, 527, 527, 527, 527, 527, 527, 527, 527, 527, 527, 527, 527, 527, 527, 527, 527, 527, 527, 527, 527, 527, 527, 527, 527, 527, 527, 527, 528, 527, 527, 527, 528, 529, 529, 529, 529, 529, 529, 529, 529, 529, 530, 530, 530, 530, 531, 531, 530, 530, 530, 530, 530, 531, 531, 531, 531, 531, 531, 531, 531, 531, 531, 531, 531, 531, 531, 531, 531, 531, 531, 531, 531, 531, 531, 531, 531, 531, 532, 532, 532, 532, 532, 533, 533, 533, 533, 533, 533, 534, 533, 533, 533, 533, 533, 533, 533, 533, 533, 533, 533, 533, 533, 533, 533, 533, 533, 533, 533, 533, 533, 533, 533, 533, 533, 533, 533, 533, 534, 534, 534, 534, 534, 535, 535, 535, 535, 536, 536, 536, 536, 536, 536, 536, 536, 536, 536, 536, 536, 536, 536, 536, 536, 536, 536, 536, 536, 536, 536, 536, 537, 537, 537, 537, 537, 537, 537, 537, 537, 537, 537, 537, 537, 538, 538, 539, 539, 539, 539, 541, 541, 541, 541, 541, 541, 541, 541, 541, 541, 541, 541, 541, 541, 541, 541, 541, 541, 541, 541, 542, 542, 542, 542, 542, 542, 542, 542, 541, 541, 542, 542, 542, 542, 542, 543, 543, 543, 544, 544, 544, 544, 544, 545, 545, 546, 546, 546, 547, 547, 547, 547, 547, 547, 547, 547, 547, 547, 547, 547, 547, 548, 548, 548, 549, 549, 549, 549, 549, 549, 550, 550, 550, 550, 550, 550, 550, 551, 551, 552, 552, 552, 552, 553, 553, 554, 554, 555, 555, 555, 0, 0, 0, 0, 0, 0, 0, 0, 0, 0, 0, 0, 0, 0, 0, 0, 0, 0, 0, 0, 0, 0, 0, 0, 0, 0, 0, 0, 0, 0, 0, 0, 0, 0, 0, 0, 0, 0, 0, 0, 0, 0, 0, 0, 0, 0, 0, 0, 0, 0, 0, 0, 0, 0, 0, 0, 0, 0, 0, 0, 0, 0, 0, 0, 0, 0, 0, 0, 0, 0, 0, 0, 0, 0, 0, 0, 0, 0, 0, 0, 0, 0, 0, 0, 0, 0, 0, 0, 0, 0, 0, 0, 0, 0, 0, 0, 0, 0, 0, 0, 0, 0, 0, 0, 0, 0, 0, 0, 0, 0, 0, 0, 0, 0, 0, 0, 0, 0, 0, 0, 0, 0, 0, 0, 0, 0, 0, 0, 0, 0, 0, 0, 0, 0, 0, 0, 0, 0, 0, 0, 0, 0, 0, 0, 0, 0, 0, 0, 0, 0, 0, 0, 0, 0, 0, 0, 0, 0, 0, 0,
       0, 0, 0, 0, 0, 0, 0, 0, 0, 0, 0, 0, 0, 0, 0, 0, 0, 0, 0, 0, 0, 0, 0, 0, 0, 0, 0, 0, 0, 0, 0, 0, 0, 0, 0, 0, 0, 0, 0, 0, 0, 0, 0, 0, 0, 0, 0, 0, 0, 0, 0, 0, 0, 0, 0, 0, 0, 0, 0, 0, 0, 0, 0, 0, 0, 0, 0, 0, 0, 0, 0, 0, 0, 0, 0, 0, 0, 0, 0, 0, 0, 0, 0, 0, 0, 0, 0, 0, 0, 0, 0, 0, 0, 0, 0, 0, 0, 0, 0, 0, 0, 0, 0, 0, 0, 0, 0, 0, 0, 0, 0, 0, 0, 0, 0, 0, 0, 0, 0, 0, 0, 545, 543, 543, 543, 543, 543, 543, 520, 520, 520, 520, 520, 520, 520, 520, 520, 520, 520, 520, 520, 521, 521, 521, 521, 521, 521, 521, 520, 520, 520, 521, 521, 521, 521, 522, 522, 522, 523, 523, 523, 523, 523, 523, 523, 523, 523, 523, 523, 523, 523, 523, 523, 523, 523, 523, 523, 523, 523, 523, 524, 524, 524, 524, 523, 523, 523, 524, 524, 524, 524, 524, 524, 524, 524, 524, 524, 524, 525, 525, 524, 524, 525, 525, 525, 525, 525, 525, 527, 527, 527, 527, 527, 527, 527, 527, 527, 527, 527, 527, 527, 527, 527, 527, 528, 528, 527, 527, 527, 527, 528, 527, 527, 527, 527, 527, 528, 528, 528, 528, 527, 527, 527, 527, 527, 527, 527, 527, 528, 528, 528, 528, 528, 529, 529, 529, 529, 529, 529, 530, 530, 530, 530, 531, 530, 530, 531, 531, 531, 531, 531, 531, 531, 531, 531, 531, 531, 531, 531, 532, 531, 531, 531, 531, 531, 531, 531, 531, 531, 531, 531, 531, 531, 531, 531, 531, 532, 532, 532, 533, 533, 533, 533, 533, 533, 533, 533, 534, 534, 535, 534, 534, 534, 534, 533, 533, 533, 533, 533, 533, 533, 533, 533, 533, 533, 533, 533, 534, 534, 533, 533, 533, 533, 533, 533, 533, 533, 534, 534, 534, 534, 534, 534, 534, 535, 535, 535, 536, 536, 536, 536, 536, 536, 536, 536, 536, 536, 536, 536, 536, 536, 536, 536, 536, 536, 536, 537, 537, 537, 537, 537, 537, 537, 537, 537, 537, 537, 537, 537, 537, 537, 537, 537, 537, 538, 538, 539, 539, 539, 540, 541, 541, 541, 541, 541, 541, 541, 541, 541, 541, 541, 541, 541, 541, 541, 541, 541, 541, 541, 541, 541, 542, 542, 542, 542, 542, 542, 542, 541, 541, 541, 541, 541, 542, 542, 543, 543, 543, 544, 544, 544, 544, 544, 545, 545, 546, 546, 546, 547, 547, 547, 547, 547, 547, 547, 547, 547, 547, 547, 547, 547, 547, 547, 548, 548, 549, 549, 549, 549, 549, 549, 549, 549, 550, 550, 550, 550, 550, 550, 551, 552, 552, 552, 553, 553, 553, 554, 554, 554, 554, 0, 0, 0, 0, 0, 0, 0, 0, 0, 0, 0, 0, 0, 0, 0, 0, 0, 0, 0, 0, 0, 0, 0, 0, 0, 0, 0, 0, 0, 0, 0, 0, 0, 0, 0, 0, 0, 0, 0, 0, 0, 0, 0, 0, 0, 0, 0, 0, 0, 0, 0, 0, 0, 0, 0, 0, 0, 0, 0, 0, 0, 0, 0, 0, 0, 0, 0, 0, 0, 0, 0, 0, 0, 0, 0, 0, 0, 0, 0, 0, 0, 0, 0, 0, 0, 0, 0, 0, 0, 0, 0, 0, 0, 0, 0, 0, 0, 0, 0, 0, 0, 0, 0, 0, 0, 0, 0, 0, 0, 0, 0, 0, 0, 0, 0, 0, 0, 0, 0, 0, 0, 0, 0, 0, 0, 0, 0, 0, 0, 0, 0, 0, 0, 0, 0, 0, 0, 0, 0, 0, 0, 0, 0, 0, 0, 0, 0, 0, 0, 0, 0, 0, 0, 0, 0, 0, 0, 0, 0, 0,
       0, 0, 0, 0, 0, 0, 0, 0, 0, 0, 0, 0, 0, 0, 0, 0, 0, 0, 0, 0, 0, 0, 0, 0, 0, 0, 0, 0, 0, 0, 0, 0, 0, 0, 0, 0, 0, 0, 0, 0, 0, 0, 0, 0, 0, 0, 0, 0, 0, 0, 0, 0, 0, 0, 0, 0, 0, 0, 0, 0, 0, 0, 0, 0, 0, 0, 0, 0, 0, 0, 0, 0, 0, 0, 0, 0, 0, 0, 0, 0, 0, 0, 0, 0, 0, 0, 0, 0, 0, 0, 0, 0, 0, 0, 0, 0, 0, 0, 0, 0, 0, 0, 0, 0, 0, 0, 0, 0, 0, 0, 0, 0, 0, 0, 0, 0, 0, 0, 0, 0, 0, 543, 543, 543, 543, 543, 543, 544, 544, 520, 520, 521, 521, 521, 520, 520, 520, 520, 520, 521, 521, 521, 521, 521, 521, 521, 521, 521, 521, 521, 521, 521, 522, 522, 522, 523, 523, 523, 523, 523, 523, 523, 523, 523, 523, 523, 523, 523, 523, 523, 523, 523, 523, 523, 523, 523, 523, 523, 523, 524, 524, 524, 524, 524, 523, 523, 524, 524, 524, 524, 524, 525, 525, 525, 525, 525, 525, 525, 525, 525, 525, 525, 525, 525, 526, 526, 526, 526, 527, 527, 527, 527, 527, 527, 527, 527, 527, 527, 527, 527, 527, 528, 528, 528, 528, 528, 528, 528, 528, 528, 528, 528, 528, 528, 528, 528, 528, 528, 528, 528, 528, 528, 528, 528, 528, 528, 528, 528, 529, 529, 528, 528, 528, 529, 529, 529, 529, 530, 530, 530, 531, 531, 531, 531, 531, 531, 531, 531, 531, 531, 531, 531, 531, 531, 531, 531, 532, 532, 532, 532, 532, 532, 532, 532, 532, 532, 532, 532, 532, 532, 532, 532, 532, 532, 532, 532, 533, 533, 533, 534, 534, 534, 535, 535, 535, 535, 535, 535, 536, 536, 536, 535, 534, 534, 534, 534, 533, 533, 533, 533, 534, 533, 533, 533, 533, 533, 534, 534, 534, 534, 534, 535, 535, 534, 534, 534, 534, 534, 535, 535, 535, 535, 535, 535, 536, 535, 535, 536, 536, 536, 536, 536, 536, 536, 536, 536, 536, 536, 536, 536, 536, 536, 536, 536, 536, 537, 537, 537, 537, 537, 537, 537, 537, 537, 537, 537, 537, 537, 537, 537, 537, 537, 537, 537, 538, 538, 539, 539, 539, 540, 541, 540, 540, 541, 541, 541, 541, 541, 541, 541, 541, 541, 541, 541, 541, 541, 541, 541, 541, 541, 541, 541, 542, 542, 542, 542, 542, 542, 541, 541, 541, 541, 541, 542, 542, 542, 543, 543, 544, 544, 544, 544, 544, 545, 545, 546, 546, 546, 546, 547, 547, 547, 547, 547, 547, 547, 546, 546, 546, 547, 547, 547, 547, 548, 548, 548, 548, 548, 548, 548, 549, 549, 549, 549, 550, 550, 550, 550, 550, 550, 552, 552, 552, 553, 553, 553, 553, 553, 554, 554, 0, 0, 0, 0, 0, 0, 0, 0, 0, 0, 0, 0, 0, 0, 0, 0, 0, 0, 0, 0, 0, 0, 0, 0, 0, 0, 0, 0, 0, 0, 0, 0, 0, 0, 0, 0, 0, 0, 0, 0, 0, 0, 0, 0, 0, 0, 0, 0, 0, 0, 0, 0, 0, 0, 0, 0, 0, 0, 0, 0, 0, 0, 0, 0, 0, 0, 0, 0, 0, 0, 0, 0, 0, 0, 0, 0, 0, 0, 0, 0, 0, 0, 0, 0, 0, 0, 0, 0, 0, 0, 0, 0, 0, 0, 0, 0, 0, 0, 0, 0, 0, 0, 0, 0, 0, 0, 0, 0, 0, 0, 0, 0, 0, 0, 0, 0, 0, 0, 0, 0, 0, 0, 0, 0, 0, 0, 0, 0, 0, 0, 0, 0, 0, 0, 0, 0, 0, 0, 0, 0, 0, 0, 0, 0, 0, 0, 0, 0, 0, 0, 0, 0, 0, 0, 0, 0, 0, 0, 0, 0,
       0, 0, 0, 0, 0, 0, 0, 0, 0, 0, 0, 0, 0, 0, 0, 0, 0, 0, 0, 0, 0, 0, 0, 0, 0, 0, 0, 0, 0, 0, 0, 0, 0, 0, 0, 0, 0, 0, 0, 0, 0, 0, 0, 0, 0, 0, 0, 0, 0, 0, 0, 0, 0, 0, 0, 0, 0, 0, 0, 0, 0, 0, 0, 0, 0, 0, 0, 0, 0, 0, 0, 0, 0, 0, 0, 0, 0, 0, 0, 0, 0, 0, 0, 0, 0, 0, 0, 0, 0, 0, 0, 0, 0, 0, 0, 0, 0, 0, 0, 0, 0, 0, 0, 0, 0, 0, 0, 0, 0, 0, 0, 0, 0, 0, 0, 0, 0, 0, 0, 0, 0, 543, 543, 543, 543, 543, 543, 544, 544, 544, 521, 521, 521, 521, 521, 521, 521, 521, 521, 521, 521, 521, 522, 522, 522, 522, 522, 522, 521, 521, 521, 522, 522, 523, 523, 523, 523, 523, 523, 523, 523, 523, 523, 523, 523, 523, 523, 523, 524, 524, 524, 524, 523, 523, 523, 524, 524, 524, 524, 524, 524, 524, 524, 524, 524, 524, 524, 525, 525, 525, 525, 526, 526, 526, 526, 525, 525, 526, 526, 526, 525, 525, 526, 526, 526, 527, 527, 527, 527, 527, 527, 528, 528, 528, 528, 528, 528, 528, 528, 528, 528, 528, 528, 528, 528, 528, 528, 528, 528, 528, 528, 528, 529, 529, 530, 530, 530, 530, 530, 529, 529, 529, 529, 529, 529, 529, 530, 530, 530, 530, 529, 529, 529, 530, 530, 530, 530, 531, 531, 531, 531, 531, 531, 531, 531, 531, 531, 531, 531, 531, 531, 531, 531, 531, 532, 532, 532, 532, 533, 533, 533, 533, 533, 533, 533, 533, 533, 533, 533, 533, 533, 533, 533, 533, 533, 533, 534, 534, 534, 535, 535, 536, 536, 536, 536, 536, 536, 537, 537, 537, 536, 536, 536, 535, 535, 535, 534, 534, 534, 534, 535, 535, 535, 534, 534, 535, 535, 536, 536, 536, 536, 536, 536, 536, 535, 535, 535, 535, 535, 535, 535, 535, 535, 535, 536, 536, 536, 536, 536, 536, 536, 536, 536, 536, 536, 536, 536, 536, 536, 536, 536, 537, 537, 537, 537, 537, 537, 537, 537, 537, 537, 537, 537, 537, 537, 537, 537, 537, 537, 537, 537, 537, 537, 537, 538, 539, 539, 539, 539, 540, 541, 540, 540, 541, 541, 541, 541, 541, 541, 541, 541, 541, 541, 541, 541, 541, 541, 541, 541, 541, 541, 541, 542, 542, 542, 542, 542, 542, 541, 541, 541, 541, 541, 542, 542, 542, 543, 543, 543, 544, 544, 544, 544, 544, 545, 546, 546, 546, 546, 547, 547, 547, 547, 546, 546, 546, 546, 546, 546, 547, 547, 547, 547, 547, 547, 548, 548, 548, 548, 548, 548, 549, 549, 549, 549, 549, 549, 549, 549, 550, 550, 550, 551, 551, 552, 552, 553, 553, 553, 553, 0, 0, 0, 0, 0, 0, 0, 0, 0, 0, 0, 0, 0, 0, 0, 0, 0, 0, 0, 0, 0, 0, 0, 0, 0, 0, 0, 0, 0, 0, 0, 0, 0, 0, 0, 0, 0, 0, 0, 0, 0, 0, 0, 0, 0, 0, 0, 0, 0, 0, 0, 0, 0, 0, 0, 0, 0, 0, 0, 0, 0, 0, 0, 0, 0, 0, 0, 0, 0, 0, 0, 0, 0, 0, 0, 0, 0, 0, 0, 0, 0, 0, 0, 0, 0, 0, 0, 0, 0, 0, 0, 0, 0, 0, 0, 0, 0, 0, 0, 0, 0, 0, 0, 0, 0, 0, 0, 0, 0, 0, 0, 0, 0, 0, 0, 0, 0, 0, 0, 0, 0, 0, 0, 0, 0, 0, 0, 0, 0, 0, 0, 0, 0, 0, 0, 0, 0, 0, 0, 0, 0, 0, 0, 0, 0, 0, 0, 0, 0, 0, 0, 0, 0, 0, 0, 0, 0, 0, 0, 0,
       0, 0, 0, 0, 0, 0, 0, 0, 0, 0, 0, 0, 0, 0, 0, 0, 0, 0, 0, 0, 0, 0, 0, 0, 0, 0, 0, 0, 0, 0, 0, 0, 0, 0, 0, 0, 0, 0, 0, 0, 0, 0, 0, 0, 0, 0, 0, 0, 0, 0, 0, 0, 0, 0, 0, 0, 0, 0, 0, 0, 0, 0, 0, 0, 0, 0, 0, 0, 0, 0, 0, 0, 0, 0, 0, 0, 0, 0, 0, 0, 0, 0, 0, 0, 0, 0, 0, 0, 0, 0, 0, 0, 0, 0, 0, 0, 0, 0, 0, 0, 0, 0, 0, 0, 0, 0, 0, 0, 0, 0, 0, 0, 0, 0, 0, 0, 0, 0, 0, 0, 0, 542, 542, 542, 543, 543, 544, 544, 544, 544, 545, 521, 521, 521, 521, 521, 521, 521, 521, 521, 522, 522, 522, 522, 522, 522, 522, 522, 522, 521, 521, 522, 523, 523, 523, 523, 523, 523, 523, 523, 523, 523, 524, 524, 524, 524, 524, 524, 524, 524, 524, 524, 524, 524, 524, 524, 524, 524, 524, 524, 524, 524, 525, 525, 525, 525, 525, 525, 526, 526, 526, 526, 526, 526, 526, 526, 526, 526, 527, 527, 527, 527, 527, 527, 527, 527, 527, 527, 528, 528, 528, 528, 528, 528, 528, 528, 528, 529, 529, 529, 529, 529, 529, 529, 529, 529, 529, 529, 529, 529, 529, 530, 530, 530, 530, 531, 531, 531, 531, 531, 531, 531, 531, 531, 531, 531, 531, 531, 531, 531, 531, 530, 530, 531, 531, 531, 531, 531, 531, 531, 532, 532, 532, 532, 532, 532, 532, 532, 532, 532, 532, 532, 532, 532, 533, 533, 533, 533, 534, 534, 534, 534, 534, 534, 534, 534, 534, 534, 534, 534, 534, 534, 534, 533, 533, 534, 535, 535, 535, 536, 536, 536, 537, 537, 538, 538, 538, 539, 539, 538, 538, 538, 538, 537, 536, 535, 535, 535, 535, 535, 535, 536, 536, 536, 536, 536, 536, 536, 536, 536, 536, 536, 536, 536, 536, 536, 536, 536, 536, 536, 536, 536, 536, 536, 536, 536, 536, 536, 536, 536, 536, 536, 536, 537, 537, 537, 537, 537, 537, 537, 537, 537, 537, 537, 537, 537, 537, 537, 537, 537, 537, 537, 538, 538, 538, 538, 538, 537, 537, 537, 537, 537, 537, 538, 538, 539, 539, 539, 540, 540, 541, 541, 541, 541, 541, 541, 541, 541, 541, 541, 541, 541, 541, 541, 541, 541, 541, 541, 541, 541, 541, 542, 542, 542, 542, 542, 542, 542, 542, 542, 542, 542, 542, 542, 542, 542, 543, 543, 543, 544, 544, 544, 544, 544, 545, 546, 546, 546, 546, 546, 546, 546, 546, 546, 546, 546, 546, 546, 546, 547, 547, 547, 547, 547, 547, 547, 547, 547, 547, 547, 548, 548, 549, 549, 549, 549, 549, 549, 549, 550, 550, 550, 550, 551, 552, 552, 552, 552, 552, 553, 0, 0, 0, 0, 0, 0, 0, 0, 0, 0, 0, 0, 0, 0, 0, 0, 0, 0, 0, 0, 0, 0, 0, 0, 0, 0, 0, 0, 0, 0, 0, 0, 0, 0, 0, 0, 0, 0, 0, 0, 0, 0, 0, 0, 0, 0, 0, 0, 0, 0, 0, 0, 0, 0, 0, 0, 0, 0, 0, 0, 0, 0, 0, 0, 0, 0, 0, 0, 0, 0, 0, 0, 0, 0, 0, 0, 0, 0, 0, 0, 0, 0, 0, 0, 0, 0, 0, 0, 0, 0, 0, 0, 0, 0, 0, 0, 0, 0, 0, 0, 0, 0, 0, 0, 0, 0, 0, 0, 0, 0, 0, 0, 0, 0, 0, 0, 0, 0, 0, 0, 0, 0, 0, 0, 0, 0, 0, 0, 0, 0, 0, 0, 0, 0, 0, 0, 0, 0, 0, 0, 0, 0, 0, 0, 0, 0, 0, 0, 0, 0, 0, 0, 0, 0, 0, 0, 0, 0, 0, 0,
       0, 0, 0, 0, 0, 0, 0, 0, 0, 0, 0, 0, 0, 0, 0, 0, 0, 0, 0, 0, 0, 0, 0, 0, 0, 0, 0, 0, 0, 0, 0, 0, 0, 0, 0, 0, 0, 0, 0, 0, 0, 0, 0, 0, 0, 0, 0, 0, 0, 0, 0, 0, 0, 0, 0, 0, 0, 0, 0, 0, 0, 0, 0, 0, 0, 0, 0, 0, 0, 0, 0, 0, 0, 0, 0, 0, 0, 0, 0, 0, 0, 0, 0, 0, 0, 0, 0, 0, 0, 0, 0, 0, 0, 0, 0, 0, 0, 0, 0, 0, 0, 0, 0, 0, 0, 0, 0, 0, 0, 0, 0, 0, 0, 0, 0, 0, 0, 0, 0, 0, 0, 542, 542, 542, 542, 543, 544, 544, 544, 545, 523, 522, 522, 522, 522, 522, 522, 522, 522, 522, 522, 522, 523, 522, 522, 522, 523, 523, 523, 523, 523, 523, 523, 523, 523, 523, 523, 523, 523, 523, 523, 523, 524, 524, 524, 524, 524, 524, 525, 525, 525, 525, 524, 524, 524, 524, 524, 525, 525, 525, 525, 525, 525, 525, 525, 526, 526, 526, 527, 527, 526, 526, 527, 527, 527, 527, 527, 527, 527, 527, 527, 527, 527, 527, 527, 527, 527, 527, 528, 528, 528, 528, 528, 529, 529, 529, 529, 530, 530, 530, 530, 530, 530, 530, 530, 530, 530, 530, 530, 530, 530, 530, 531, 531, 531, 531, 531, 531, 531, 531, 531, 532, 532, 532, 532, 532, 533, 533, 532, 532, 532, 532, 532, 532, 532, 532, 532, 532, 532, 532, 532, 532, 532, 532, 532, 532, 532, 532, 532, 532, 532, 533, 533, 533, 534, 534, 534, 535, 535, 535, 535, 535, 535, 535, 535, 535, 535, 535, 535, 535, 535, 535, 535, 535, 535, 535, 536, 536, 536, 536, 536, 538, 538, 538, 539, 539, 539, 540, 540, 539, 539, 539, 540, 539, 538, 537, 537, 537, 537, 537, 536, 536, 536, 536, 536, 536, 536, 536, 536, 536, 536, 536, 536, 536, 536, 536, 536, 536, 536, 536, 536, 536, 536, 536, 536, 536, 536, 536, 537, 537, 537, 537, 537, 537, 537, 537, 537, 537, 537, 537, 537, 537, 537, 537, 537, 537, 538, 537, 537, 537, 537, 538, 538, 538, 538, 538, 538, 538, 538, 538, 538, 538, 538, 538, 539, 539, 540, 540, 540, 540, 541, 541, 541, 541, 541, 541, 541, 541, 541, 541, 541, 541, 541, 541, 541, 541, 541, 541, 541, 541, 541, 541, 542, 542, 542, 542, 542, 542, 542, 542, 542, 542, 542, 542, 542, 542, 543, 543, 543, 544, 544, 544, 544, 544, 545, 546, 546, 546, 546, 546, 546, 546, 546, 546, 546, 546, 546, 546, 546, 547, 547, 547, 547, 547, 547, 547, 547, 547, 547, 547, 548, 548, 548, 549, 549, 549, 549, 549, 549, 549, 550, 550, 550, 550, 551, 551, 552, 552, 552, 552, 553, 0, 0, 0, 0, 0, 0, 0, 0, 0, 0, 0, 0, 0, 0, 0, 0, 0, 0, 0, 0, 0, 0, 0, 0, 0, 0, 0, 0, 0, 0, 0, 0, 0, 0, 0, 0, 0, 0, 0, 0, 0, 0, 0, 0, 0, 0, 0, 0, 0, 0, 0, 0, 0, 0, 0, 0, 0, 0, 0, 0, 0, 0, 0, 0, 0, 0, 0, 0, 0, 0, 0, 0, 0, 0, 0, 0, 0, 0, 0, 0, 0, 0, 0, 0, 0, 0, 0, 0, 0, 0, 0, 0, 0, 0, 0, 0, 0, 0, 0, 0, 0, 0, 0, 0, 0, 0, 0, 0, 0, 0, 0, 0, 0, 0, 0, 0, 0, 0, 0, 0, 0, 0, 0, 0, 0, 0, 0, 0, 0, 0, 0, 0, 0, 0, 0, 0, 0, 0, 0, 0, 0, 0, 0, 0, 0, 0, 0, 0, 0, 0, 0, 0, 0, 0, 0, 0, 0, 0, 0,
       0, 0, 0, 0, 0, 0, 0, 0, 0, 0, 0, 0, 0, 0, 0, 0, 0, 0, 0, 0, 0, 0, 0, 0, 0, 0, 0, 0, 0, 0, 0, 0, 0, 0, 0, 0, 0, 0, 0, 0, 0, 0, 0, 0, 0, 0, 0, 0, 0, 0, 0, 0, 0, 0, 0, 0, 0, 0, 0, 0, 0, 0, 0, 0, 0, 0, 0, 0, 0, 0, 0, 0, 0, 0, 0, 0, 0, 0, 0, 0, 0, 0, 0, 0, 0, 0, 0, 0, 0, 0, 0, 0, 0, 0, 0, 0, 0, 0, 0, 0, 0, 0, 0, 0, 0, 0, 0, 0, 0, 0, 0, 0, 0, 0, 0, 0, 0, 0, 0, 0, 0, 0, 0, 542, 542, 544, 544, 544, 544, 545, 523, 523, 523, 523, 523, 523, 523, 523, 523, 523, 523, 523, 523, 523, 523, 523, 523, 523, 523, 523, 523, 524, 524, 523, 523, 523, 523, 523, 523, 523, 523, 523, 524, 524, 525, 525, 525, 525, 526, 526, 526, 525, 525, 525, 525, 525, 525, 525, 526, 526, 527, 527, 526, 526, 526, 527, 527, 527, 527, 527, 527, 527, 527, 527, 527, 527, 527, 527, 527, 527, 527, 528, 527, 527, 527, 527, 527, 528, 529, 529, 529, 530, 530, 530, 530, 530, 530, 530, 530, 530, 530, 530, 530, 530, 530, 530, 530, 530, 531, 531, 531, 531, 531, 531, 531, 531, 531, 531, 532, 532, 533, 533, 533, 533, 532, 532, 533, 533, 533, 533, 533, 533, 533, 534, 533, 533, 533, 533, 533, 533, 533, 533, 533, 533, 533, 533, 533, 533, 534, 533, 533, 534, 534, 534, 535, 535, 535, 535, 535, 536, 536, 536, 536, 536, 536, 536, 536, 535, 535, 535, 535, 535, 535, 535, 535, 536, 536, 536, 536, 538, 539, 540, 540, 540, 540, 540, 540, 540, 540, 540, 540, 541, 541, 541, 541, 539, 539, 539, 540, 539, 539, 539, 539, 538, 538, 538, 538, 538, 537, 537, 536, 536, 536, 536, 536, 536, 536, 536, 536, 536, 536, 536, 536, 536, 537, 537, 537, 537, 538, 538, 538, 538, 538, 538, 538, 538, 538, 538, 538, 538, 538, 538, 538, 538, 538, 538, 538, 538, 538, 538, 538, 538, 538, 538, 538, 538, 538, 538, 538, 538, 538, 538, 538, 539, 539, 540, 540, 540, 540, 540, 541, 541, 541, 541, 541, 541, 541, 541, 541, 541, 541, 541, 541, 541, 541, 541, 541, 541, 541, 541, 541, 541, 542, 542, 542, 542, 542, 542, 542, 543, 543, 542, 542, 542, 542, 543, 543, 543, 543, 544, 544, 544, 544, 544, 545, 546, 546, 546, 546, 546, 546, 546, 546, 546, 546, 546, 546, 546, 546, 547, 547, 547, 547, 547, 547, 547, 547, 547, 547, 547, 547, 548, 548, 548, 549, 549, 549, 549, 549, 549, 549, 549, 550, 550, 550, 550, 551, 551, 551, 551, 553, 0, 0, 0, 0, 0, 0, 0, 0, 0, 0, 0, 0, 0, 0, 0, 0, 0, 0, 0, 0, 0, 0, 0, 0, 0, 0, 0, 0, 0, 0, 0, 0, 0, 0, 0, 0, 0, 0, 0, 0, 0, 0, 0, 0, 0, 0, 0, 0, 0, 0, 0, 0, 0, 0, 0, 0, 0, 0, 0, 0, 0, 0, 0, 0, 0, 0, 0, 0, 0, 0, 0, 0, 0, 0, 0, 0, 0, 0, 0, 0, 0, 0, 0, 0, 0, 0, 0, 0, 0, 0, 0, 0, 0, 0, 0, 0, 0, 0, 0, 0, 0, 0, 0, 0, 0, 0, 0, 0, 0, 0, 0, 0, 0, 0, 0, 0, 0, 0, 0, 0, 0, 0, 0, 0, 0, 0, 0, 0, 0, 0, 0, 0, 0, 0, 0, 0, 0, 0, 0, 0, 0, 0, 0, 0, 0, 0, 0, 0, 0, 0, 0, 0, 0, 0, 0, 0, 0, 0, 0,
       0, 0, 0, 0, 0, 0, 0, 0, 0, 0, 0, 0, 0, 0, 0, 0, 0, 0, 0, 0, 0, 0, 0, 0, 0, 0, 0, 0, 0, 0, 0, 0, 0, 0, 0, 0, 0, 0, 0, 0, 0, 0, 0, 0, 0, 0, 0, 0, 0, 0, 0, 0, 0, 0, 0, 0, 0, 0, 0, 0, 0, 0, 0, 0, 0, 0, 0, 0, 0, 0, 0, 0, 0, 0, 0, 0, 0, 0, 0, 0, 0, 0, 0, 0, 0, 0, 0, 0, 0, 0, 0, 0, 0, 0, 0, 0, 0, 0, 0, 0, 0, 0, 0, 0, 0, 0, 0, 0, 0, 0, 0, 0, 0, 0, 0, 0, 0, 0, 0, 0, 0, 0, 0, 0, 0, 0, 0, 0, 547, 547, 523, 523, 523, 523, 523, 523, 523, 523, 523, 523, 523, 523, 523, 523, 523, 523, 523, 524, 524, 524, 524, 524, 525, 524, 524, 524, 524, 524, 524, 524, 524, 524, 525, 525, 526, 526, 526, 526, 526, 526, 526, 526, 525, 525, 526, 526, 526, 526, 526, 527, 527, 527, 527, 527, 527, 527, 527, 527, 527, 527, 527, 527, 528, 527, 527, 528, 528, 529, 529, 529, 529, 529, 529, 529, 528, 528, 528, 529, 530, 530, 531, 531, 531, 531, 531, 531, 531, 531, 531, 531, 531, 531, 531, 531, 531, 531, 531, 531, 531, 531, 531, 531, 531, 531, 531, 532, 532, 532, 533, 533, 533, 533, 533, 533, 533, 533, 533, 533, 534, 534, 534, 534, 534, 535, 535, 535, 534, 534, 534, 534, 534, 534, 534, 534, 534, 534, 534, 535, 535, 535, 535, 535, 535, 536, 536, 536, 536, 536, 536, 536, 536, 536, 537, 537, 537, 536, 536, 536, 536, 536, 536, 536, 536, 536, 536, 537, 537, 537, 544, 543, 543, 541, 541, 541, 541, 541, 541, 541, 541, 541, 541, 542, 542, 541, 541, 541, 541, 541, 541, 541, 541, 541, 541, 540, 540, 539, 539, 539, 538, 537, 537, 537, 537, 537, 537, 537, 537, 537, 537, 536, 536, 536, 536, 536, 537, 537, 537, 538, 538, 538, 538, 538, 538, 538, 538, 538, 539, 538, 538, 539, 539, 539, 538, 538, 538, 538, 539, 538, 538, 538, 538, 539, 539, 539, 539, 539, 539, 539, 539, 539, 539, 539, 539, 540, 540, 540, 540, 540, 540, 540, 541, 541, 541, 541, 541, 541, 541, 541, 541, 541, 541, 541, 541, 541, 541, 541, 541, 541, 541, 541, 542, 542, 542, 542, 542, 543, 543, 543, 543, 543, 543, 542, 542, 543, 543, 543, 543, 544, 544, 544, 544, 544, 544, 544, 545, 546, 546, 546, 546, 546, 546, 546, 546, 546, 546, 546, 546, 546, 546, 547, 547, 547, 547, 547, 547, 547, 547, 547, 547, 547, 547, 548, 548, 548, 549, 549, 549, 549, 549, 549, 549, 549, 549, 550, 550, 550, 551, 551, 551, 551, 0, 0, 0, 0, 0, 0, 0, 0, 0, 0, 0, 0, 0, 0, 0, 0, 0, 0, 0, 0, 0, 0, 0, 0, 0, 0, 0, 0, 0, 0, 0, 0, 0, 0, 0, 0, 0, 0, 0, 0, 0, 0, 0, 0, 0, 0, 0, 0, 0, 0, 0, 0, 0, 0, 0, 0, 0, 0, 0, 0, 0, 0, 0, 0, 0, 0, 0, 0, 0, 0, 0, 0, 0, 0, 0, 0, 0, 0, 0, 0, 0, 0, 0, 0, 0, 0, 0, 0, 0, 0, 0, 0, 0, 0, 0, 0, 0, 0, 0, 0, 0, 0, 0, 0, 0, 0, 0, 0, 0, 0, 0, 0, 0, 0, 0, 0, 0, 0, 0, 0, 0, 0, 0, 0, 0, 0, 0, 0, 0, 0, 0, 0, 0, 0, 0, 0, 0, 0, 0, 0, 0, 0, 0, 0, 0, 0, 0, 0, 0, 0, 0, 0, 0, 0, 0, 0, 0, 0, 0, 0,
       0, 0, 0, 0, 0, 0, 0, 0, 0, 0, 0, 0, 0, 0, 0, 0, 0, 0, 0, 0, 0, 0, 0, 0, 0, 0, 0, 0, 0, 0, 0, 0, 0, 0, 0, 0, 0, 0, 0, 0, 0, 0, 0, 0, 0, 0, 0, 0, 0, 0, 0, 0, 0, 0, 0, 0, 0, 0, 0, 0, 0, 0, 0, 0, 0, 0, 0, 0, 0, 0, 0, 0, 0, 0, 0, 0, 0, 0, 0, 0, 0, 0, 0, 0, 0, 0, 0, 0, 0, 0, 0, 0, 0, 0, 0, 0, 0, 0, 0, 0, 0, 0, 0, 0, 0, 0, 0, 0, 0, 0, 0, 0, 0, 0, 0, 0, 0, 0, 0, 0, 0, 0, 0, 0, 0, 0, 0, 0, 546, 546, 524, 524, 524, 523, 523, 523, 523, 523, 523, 523, 524, 524, 524, 523, 523, 524, 524, 525, 525, 525, 525, 525, 525, 525, 524, 524, 524, 524, 524, 524, 524, 524, 525, 526, 526, 526, 526, 527, 527, 527, 527, 527, 526, 526, 527, 527, 527, 527, 527, 527, 527, 528, 528, 528, 528, 528, 528, 528, 528, 528, 528, 528, 528, 528, 528, 529, 529, 529, 530, 529, 529, 530, 530, 530, 530, 530, 530, 530, 531, 531, 531, 531, 531, 531, 531, 531, 531, 531, 531, 531, 531, 531, 531, 531, 531, 531, 531, 531, 531, 531, 531, 531, 531, 532, 532, 533, 533, 533, 533, 534, 534, 534, 534, 534, 534, 534, 534, 534, 534, 534, 535, 535, 535, 535, 536, 536, 536, 536, 536, 536, 535, 535, 535, 535, 535, 535, 535, 535, 536, 536, 536, 536, 536, 536, 536, 536, 536, 536, 536, 536, 536, 537, 538, 538, 538, 538, 538, 537, 537, 537, 537, 537, 538, 539, 539, 540, 544, 544, 545, 545, 544, 542, 542, 541, 541, 541, 542, 542, 542, 543, 543, 543, 543, 542, 542, 542, 542, 542, 542, 541, 541, 542, 541, 541, 541, 540, 540, 540, 539, 539, 539, 539, 539, 538, 537, 537, 538, 538, 538, 537, 537, 537, 537, 537, 538, 538, 538, 539, 539, 539, 539, 538, 538, 538, 538, 539, 539, 539, 539, 539, 539, 539, 539, 539, 539, 539, 539, 539, 539, 539, 539, 540, 539, 539, 539, 539, 539, 540, 540, 540, 540, 540, 540, 540, 540, 540, 540, 541, 541, 541, 541, 541, 541, 542, 542, 542, 542, 542, 542, 541, 541, 542, 541, 541, 542, 542, 542, 542, 541, 541, 542, 542, 542, 542, 542, 543, 543, 543, 543, 544, 544, 543, 543, 543, 543, 544, 544, 544, 544, 544, 545, 545, 545, 545, 545, 546, 546, 546, 546, 546, 546, 546, 546, 546, 546, 546, 546, 546, 546, 547, 547, 547, 547, 547, 547, 547, 547, 547, 547, 547, 547, 548, 548, 548, 549, 549, 549, 549, 549, 549, 549, 549, 549, 549, 549, 550, 550, 550, 550, 0, 0, 0, 0, 0, 0, 0, 0, 0, 0, 0, 0, 0, 0, 0, 0, 0, 0, 0, 0, 0, 0, 0, 0, 0, 0, 0, 0, 0, 0, 0, 0, 0, 0, 0, 0, 0, 0, 0, 0, 0, 0, 0, 0, 0, 0, 0, 0, 0, 0, 0, 0, 0, 0, 0, 0, 0, 0, 0, 0, 0, 0, 0, 0, 0, 0, 0, 0, 0, 0, 0, 0, 0, 0, 0, 0, 0, 0, 0, 0, 0, 0, 0, 0, 0, 0, 0, 0, 0, 0, 0, 0, 0, 0, 0, 0, 0, 0, 0, 0, 0, 0, 0, 0, 0, 0, 0, 0, 0, 0, 0, 0, 0, 0, 0, 0, 0, 0, 0, 0, 0, 0, 0, 0, 0, 0, 0, 0, 0, 0, 0, 0, 0, 0, 0, 0, 0, 0, 0, 0, 0, 0, 0, 0, 0, 0, 0, 0, 0, 0, 0, 0, 0, 0, 0, 0, 0, 0, 0, 0, 0,
       0, 0, 0, 0, 0, 0, 0, 0, 0, 0, 0, 0, 0, 0, 0, 0, 0, 0, 0, 0, 0, 0, 0, 0, 0, 0, 0, 0, 0, 0, 0, 0, 0, 0, 0, 0, 0, 0, 0, 0, 0, 0, 0, 0, 0, 0, 0, 0, 0, 0, 0, 0, 0, 0, 0, 0, 0, 0, 0, 0, 0, 0, 0, 0, 0, 0, 0, 0, 0, 0, 0, 0, 0, 0, 0, 0, 0, 0, 0, 0, 0, 0, 0, 0, 0, 0, 0, 0, 0, 0, 0, 0, 0, 0, 0, 0, 0, 0, 0, 0, 0, 0, 0, 0, 0, 0, 0, 0, 0, 0, 0, 0, 0, 0, 0, 0, 0, 0, 0, 0, 0, 0, 0, 0, 0, 0, 0, 0, 546, 546, 524, 524, 524, 524, 524, 524, 524, 524, 524, 524, 524, 524, 524, 524, 524, 524, 525, 525, 525, 526, 526, 526, 526, 526, 526, 526, 526, 525, 525, 526, 526, 526, 526, 527, 527, 527, 527, 527, 527, 527, 527, 527, 527, 527, 527, 527, 527, 527, 527, 527, 528, 528, 528, 529, 529, 529, 529, 530, 530, 530, 530, 530, 531, 531, 531, 529, 529, 530, 530, 530, 530, 530, 531, 531, 531, 531, 531, 531, 531, 531, 531, 531, 531, 531, 531, 532, 532, 531, 531, 531, 531, 531, 531, 532, 531, 531, 532, 532, 532, 532, 532, 532, 532, 532, 533, 533, 534, 534, 534, 534, 534, 535, 535, 534, 534, 534, 535, 535, 535, 535, 535, 535, 536, 536, 537, 537, 538, 537, 537, 536, 536, 536, 536, 536, 537, 536, 536, 536, 536, 536, 536, 536, 537, 536, 536, 536, 537, 537, 538, 538, 538, 539, 539, 539, 539, 539, 539, 538, 538, 539, 538, 538, 540, 540, 543, 543, 545, 545, 545, 546, 545, 543, 543, 543, 543, 543, 543, 543, 543, 549, 549, 545, 543, 543, 543, 542, 542, 542, 542, 542, 542, 543, 543, 543, 541, 541, 541, 541, 540, 540, 540, 540, 540, 540, 540, 540, 540, 539, 539, 538, 538, 538, 538, 538, 539, 539, 539, 539, 540, 540, 540, 539, 539, 539, 539, 539, 539, 539, 539, 540, 540, 540, 540, 540, 540, 540, 539, 539, 539, 539, 539, 540, 540, 540, 540, 540, 540, 540, 540, 540, 540, 540, 540, 541, 541, 541, 541, 541, 541, 541, 541, 542, 542, 542, 542, 542, 542, 542, 542, 542, 542, 542, 542, 542, 543, 543, 543, 543, 543, 543, 543, 543, 542, 542, 543, 543, 543, 543, 543, 544, 544, 543, 543, 543, 543, 544, 544, 544, 544, 544, 545, 545, 545, 545, 545, 546, 546, 546, 546, 546, 546, 546, 546, 546, 546, 546, 546, 546, 546, 547, 547, 547, 547, 547, 547, 547, 547, 547, 547, 547, 548, 548, 548, 548, 548, 549, 549, 549, 549, 549, 549, 549, 549, 549, 549, 550, 550, 549, 549, 549, 0, 0, 0, 0, 0, 0, 0, 0, 0, 0, 0, 0, 0, 0, 0, 0, 0, 0, 0, 0, 0, 0, 0, 0, 0, 0, 0, 0, 0, 0, 0, 0, 0, 0, 0, 0, 0, 0, 0, 0, 0, 0, 0, 0, 0, 0, 0, 0, 0, 0, 0, 0, 0, 0, 0, 0, 0, 0, 0, 0, 0, 0, 0, 0, 0, 0, 0, 0, 0, 0, 0, 0, 0, 0, 0, 0, 0, 0, 0, 0, 0, 0, 0, 0, 0, 0, 0, 0, 0, 0, 0, 0, 0, 0, 0, 0, 0, 0, 0, 0, 0, 0, 0, 0, 0, 0, 0, 0, 0, 0, 0, 0, 0, 0, 0, 0, 0, 0, 0, 0, 0, 0, 0, 0, 0, 0, 0, 0, 0, 0, 0, 0, 0, 0, 0, 0, 0, 0, 0, 0, 0, 0, 0, 0, 0, 0, 0, 0, 0, 0, 0, 0, 0, 0, 0, 0, 0, 0, 0, 0,
       0, 0, 0, 0, 0, 0, 0, 0, 0, 0, 0, 0, 0, 0, 0, 0, 0, 0, 0, 0, 0, 0, 0, 0, 0, 0, 0, 0, 0, 0, 0, 0, 0, 0, 0, 0, 0, 0, 0, 0, 0, 0, 0, 0, 0, 0, 0, 0, 0, 0, 0, 0, 0, 0, 0, 0, 0, 0, 0, 0, 0, 0, 0, 0, 0, 0, 0, 0, 0, 0, 0, 0, 0, 0, 0, 0, 0, 0, 0, 0, 0, 0, 0, 0, 0, 0, 0, 0, 0, 0, 0, 0, 0, 0, 0, 0, 0, 0, 0, 0, 0, 0, 0, 0, 0, 0, 0, 0, 0, 0, 0, 0, 0, 0, 0, 0, 0, 0, 0, 0, 0, 0, 0, 0, 0, 0, 0, 580, 580, 526, 526, 524, 524, 524, 524, 524, 524, 524, 525, 525, 525, 525, 525, 525, 525, 525, 525, 526, 526, 526, 526, 526, 526, 526, 526, 527, 527, 527, 527, 527, 527, 527, 527, 527, 527, 527, 527, 528, 528, 528, 527, 527, 527, 527, 527, 527, 527, 527, 528, 528, 529, 529, 529, 530, 530, 530, 530, 530, 530, 531, 531, 531, 531, 531, 531, 531, 531, 531, 531, 531, 531, 531, 531, 531, 531, 531, 531, 531, 532, 532, 532, 532, 532, 532, 532, 533, 533, 532, 532, 532, 532, 534, 534, 535, 535, 535, 535, 535, 534, 534, 534, 534, 534, 534, 534, 535, 535, 535, 535, 535, 535, 535, 535, 535, 535, 535, 535, 536, 536, 536, 536, 536, 536, 537, 539, 539, 540, 539, 539, 538, 538, 537, 537, 538, 538, 538, 538, 538, 538, 538, 537, 537, 537, 537, 536, 536, 537, 538, 539, 539, 539, 540, 541, 540, 540, 539, 539, 539, 539, 540, 540, 540, 547, 547, 545, 545, 545, 546, 546, 546, 545, 545, 0, 0, 0, 0, 0, 549, 549, 549, 549, 545, 544, 544, 544, 543, 543, 544, 543, 543, 544, 544, 544, 544, 544, 542, 542, 541, 541, 541, 541, 541, 541, 541, 541, 541, 541, 540, 540, 540, 540, 539, 539, 539, 540, 540, 540, 540, 540, 540, 540, 540, 540, 540, 540, 540, 540, 540, 540, 540, 540, 540, 540, 540, 540, 540, 540, 540, 540, 540, 540, 540, 540, 540, 540, 540, 540, 540, 541, 541, 541, 541, 541, 541, 541, 541, 541, 541, 541, 541, 542, 543, 543, 543, 543, 543, 543, 543, 543, 543, 543, 543, 543, 543, 543, 544, 544, 544, 544, 544, 544, 543, 543, 543, 543, 543, 544, 544, 544, 544, 544, 544, 544, 544, 544, 544, 544, 544, 544, 544, 545, 545, 545, 545, 545, 546, 546, 546, 546, 546, 546, 546, 546, 546, 546, 546, 546, 546, 546, 547, 547, 547, 547, 547, 547, 548, 548, 548, 548, 548, 548, 548, 548, 548, 548, 549, 549, 549, 549, 549, 549, 549, 549, 549, 549, 549, 549, 549, 549, 549, 0, 0, 0, 0, 0, 0, 0, 0, 0, 0, 0, 0, 0, 0, 0, 0, 0, 0, 0, 0, 0, 0, 0, 0, 0, 0, 0, 0, 0, 0, 0, 0, 0, 0, 0, 0, 0, 0, 0, 0, 0, 0, 0, 0, 0, 0, 0, 0, 0, 0, 0, 0, 0, 0, 0, 0, 0, 0, 0, 0, 0, 0, 0, 0, 0, 0, 0, 0, 0, 0, 0, 0, 0, 0, 0, 0, 0, 0, 0, 0, 0, 0, 0, 0, 0, 0, 0, 0, 0, 0, 0, 0, 0, 0, 0, 0, 0, 0, 0, 0, 0, 0, 0, 0, 0, 0, 0, 0, 0, 0, 0, 0, 0, 0, 0, 0, 0, 0, 0, 0, 0, 0, 0, 0, 0, 0, 0, 0, 0, 0, 0, 0, 0, 0, 0, 0, 0, 0, 0, 0, 0, 0, 0, 0, 0, 0, 0, 0, 0, 0, 0, 0, 0, 0, 0, 0, 0, 0, 0, 0,
       0, 0, 0, 0, 0, 0, 0, 0, 0, 0, 0, 0, 0, 0, 0, 0, 0, 0, 0, 0, 0, 0, 0, 0, 0, 0, 0, 0, 0, 0, 0, 0, 0, 0, 0, 0, 0, 0, 0, 0, 0, 0, 0, 0, 0, 0, 0, 0, 0, 0, 0, 0, 0, 0, 0, 0, 0, 0, 0, 0, 0, 0, 0, 0, 0, 0, 0, 0, 0, 0, 0, 0, 0, 0, 0, 0, 0, 0, 0, 0, 0, 0, 0, 0, 0, 0, 0, 0, 0, 0, 0, 0, 0, 0, 0, 0, 0, 0, 0, 0, 0, 0, 0, 0, 0, 0, 0, 0, 0, 0, 0, 0, 0, 0, 0, 0, 0, 0, 0, 0, 0, 0, 0, 0, 0, 581, 580, 580, 580, 580, 526, 526, 526, 526, 526, 525, 525, 525, 526, 526, 526, 526, 526, 526, 526, 526, 526, 526, 526, 526, 526, 527, 527, 527, 527, 527, 527, 527, 528, 528, 528, 528, 528, 529, 529, 529, 529, 529, 529, 529, 528, 528, 529, 529, 529, 528, 528, 528, 529, 529, 530, 530, 530, 530, 530, 531, 531, 531, 531, 531, 531, 531, 532, 531, 531, 531, 531, 531, 531, 531, 532, 532, 532, 532, 532, 532, 532, 532, 532, 532, 533, 534, 534, 534, 534, 534, 534, 534, 534, 534, 535, 535, 536, 536, 536, 536, 536, 536, 536, 536, 536, 536, 536, 535, 535, 536, 536, 536, 536, 536, 536, 536, 536, 536, 536, 536, 536, 536, 536, 536, 536, 537, 538, 539, 540, 540, 541, 541, 541, 541, 541, 539, 539, 539, 539, 539, 539, 539, 539, 539, 539, 539, 539, 538, 538, 538, 539, 539, 540, 540, 541, 541, 541, 541, 541, 541, 540, 540, 541, 541, 0, 0, 547, 547, 546, 546, 546, 546, 546, 546, 546, 0, 0, 0, 0, 0, 0, 0, 0, 550, 550, 549, 549, 549, 550, 554, 553, 544, 544, 544, 544, 544, 545, 545, 545, 545, 543, 543, 543, 542, 541, 541, 541, 541, 541, 541, 541, 541, 541, 541, 540, 540, 541, 541, 541, 541, 541, 541, 541, 541, 541, 541, 541, 541, 541, 541, 541, 541, 541, 541, 541, 541, 541, 541, 541, 541, 541, 541, 541, 541, 541, 541, 541, 541, 541, 541, 541, 541, 541, 541, 541, 541, 541, 541, 541, 541, 541, 541, 541, 542, 543, 543, 544, 544, 544, 544, 544, 543, 543, 543, 543, 543, 543, 543, 544, 544, 544, 544, 544, 544, 544, 544, 544, 544, 544, 544, 544, 544, 544, 544, 544, 544, 544, 544, 544, 544, 544, 545, 545, 545, 545, 545, 545, 545, 545, 546, 546, 546, 546, 546, 546, 546, 546, 546, 546, 546, 546, 546, 547, 547, 547, 547, 547, 547, 548, 548, 548, 548, 548, 548, 548, 548, 548, 548, 548, 549, 549, 549, 549, 549, 549, 549, 549, 549, 549, 549, 549, 549, 548, 548, 0, 0, 0, 0, 0, 0, 0, 0, 0, 0, 0, 0, 0, 0, 0, 0, 0, 0, 0, 0, 0, 0, 0, 0, 0, 0, 0, 0, 0, 0, 0, 0, 0, 0, 0, 0, 0, 0, 0, 0, 0, 0, 0, 0, 0, 0, 0, 0, 0, 0, 0, 0, 0, 0, 0, 0, 0, 0, 0, 0, 0, 0, 0, 0, 0, 0, 0, 0, 0, 0, 0, 0, 0, 0, 0, 0, 0, 0, 0, 0, 0, 0, 0, 0, 0, 0, 0, 0, 0, 0, 0, 0, 0, 0, 0, 0, 0, 0, 0, 0, 0, 0, 0, 0, 0, 0, 0, 0, 0, 0, 0, 0, 0, 0, 0, 0, 0, 0, 0, 0, 0, 0, 0, 0, 0, 0, 0, 0, 0, 0, 0, 0, 0, 0, 0, 0, 0, 0, 0, 0, 0, 0, 0, 0, 0, 0, 0, 0, 0, 0, 0, 0, 0, 0, 0, 0, 0, 0, 0, 0,
       0, 0, 0, 0, 0, 0, 0, 0, 0, 0, 0, 0, 0, 0, 0, 0, 0, 0, 0, 0, 0, 0, 0, 0, 0, 0, 0, 0, 0, 0, 0, 0, 0, 0, 0, 0, 0, 0, 0, 0, 0, 0, 0, 0, 0, 0, 0, 0, 0, 0, 0, 0, 0, 0, 0, 0, 0, 0, 0, 0, 0, 0, 0, 0, 0, 0, 0, 0, 0, 0, 0, 0, 0, 0, 0, 0, 0, 0, 0, 0, 0, 0, 0, 0, 0, 0, 0, 0, 0, 0, 0, 0, 0, 0, 0, 0, 0, 0, 0, 0, 0, 0, 0, 0, 0, 0, 0, 0, 0, 0, 0, 0, 0, 0, 0, 0, 0, 0, 0, 0, 0, 0, 0, 0, 0, 581, 580, 580, 580, 580, 580, 527, 526, 526, 527, 527, 527, 527, 527, 527, 527, 527, 527, 527, 527, 527, 527, 527, 527, 527, 527, 527, 527, 527, 527, 528, 528, 529, 529, 529, 529, 529, 529, 530, 530, 530, 530, 530, 530, 530, 530, 530, 531, 531, 531, 531, 531, 531, 531, 531, 531, 531, 531, 531, 531, 531, 531, 531, 531, 533, 533, 533, 533, 533, 533, 532, 531, 531, 532, 532, 533, 533, 533, 534, 534, 534, 534, 534, 534, 534, 535, 536, 535, 535, 535, 535, 535, 535, 535, 535, 536, 536, 537, 537, 537, 537, 536, 536, 536, 536, 536, 536, 536, 536, 536, 536, 536, 536, 536, 536, 536, 537, 538, 537, 537, 537, 537, 538, 538, 538, 538, 538, 539, 539, 541, 541, 541, 541, 541, 541, 541, 541, 541, 541, 541, 541, 541, 540, 540, 540, 540, 540, 0, 0, 0, 0, 541, 541, 541, 541, 541, 541, 541, 541, 541, 541, 541, 541, 541, 0, 0, 0, 0, 0, 546, 546, 546, 546, 546, 546, 546, 0, 0, 0, 0, 0, 0, 0, 0, 550, 550, 550, 550, 550, 550, 551, 552, 552, 552, 552, 546, 546, 546, 546, 546, 546, 546, 545, 545, 544, 543, 543, 543, 543, 543, 543, 542, 542, 542, 541, 541, 541, 541, 542, 542, 543, 542, 542, 543, 543, 543, 542, 542, 542, 542, 542, 541, 541, 541, 541, 541, 541, 541, 541, 541, 541, 541, 541, 541, 541, 541, 541, 541, 541, 541, 541, 541, 541, 541, 541, 541, 541, 541, 541, 541, 541, 541, 542, 542, 543, 544, 544, 544, 544, 544, 544, 544, 544, 544, 544, 544, 544, 544, 544, 544, 544, 544, 544, 544, 544, 544, 544, 544, 544, 544, 544, 544, 544, 545, 545, 545, 545, 545, 545, 545, 545, 545, 545, 545, 545, 545, 545, 545, 545, 545, 546, 546, 546, 546, 546, 546, 546, 546, 546, 546, 546, 546, 547, 547, 547, 547, 547, 547, 548, 548, 548, 548, 548, 548, 548, 548, 548, 548, 548, 548, 549, 549, 549, 549, 549, 550, 550, 550, 549, 549, 549, 549, 549, 548, 548, 0, 0, 0, 0, 0, 0, 0, 0, 0, 0, 0, 0, 0, 0, 0, 0, 0, 0, 0, 0, 0, 0, 0, 0, 0, 0, 0, 0, 0, 0, 0, 0, 0, 0, 0, 0, 0, 0, 0, 0, 0, 0, 0, 0, 0, 0, 0, 0, 0, 0, 0, 0, 0, 0, 0, 0, 0, 0, 0, 0, 0, 0, 0, 0, 0, 0, 0, 0, 0, 0, 0, 0, 0, 0, 0, 0, 0, 0, 0, 0, 0, 0, 0, 0, 0, 0, 0, 0, 0, 0, 0, 0, 0, 0, 0, 0, 0, 0, 0, 0, 0, 0, 0, 0, 0, 0, 0, 0, 0, 0, 0, 0, 0, 0, 0, 0, 0, 0, 0, 0, 0, 0, 0, 0, 0, 0, 0, 0, 0, 0, 0, 0, 0, 0, 0, 0, 0, 0, 0, 0, 0, 0, 0, 0, 0, 0, 0, 0, 0, 0, 0, 0, 0, 0, 0, 0, 0, 0, 0, 0,
       0, 0, 0, 0, 0, 0, 0, 0, 0, 0, 0, 0, 0, 0, 0, 0, 0, 0, 0, 0, 0, 0, 0, 0, 0, 0, 0, 0, 0, 0, 0, 0, 0, 0, 0, 0, 0, 0, 0, 0, 0, 0, 0, 0, 0, 0, 0, 0, 0, 0, 0, 0, 0, 0, 0, 0, 0, 0, 0, 0, 0, 0, 0, 0, 0, 0, 0, 0, 0, 0, 0, 0, 0, 0, 0, 0, 0, 0, 0, 0, 0, 0, 0, 0, 0, 0, 0, 0, 0, 0, 0, 0, 0, 0, 0, 0, 0, 0, 0, 0, 0, 0, 0, 0, 0, 0, 0, 0, 0, 0, 0, 0, 0, 0, 0, 0, 0, 0, 0, 0, 0, 0, 0, 0, 0, 581, 580, 580, 580, 580, 580, 528, 527, 527, 527, 527, 527, 528, 528, 529, 528, 528, 529, 529, 527, 527, 527, 527, 527, 527, 527, 527, 527, 528, 528, 528, 529, 529, 529, 529, 530, 530, 530, 531, 531, 531, 531, 531, 531, 531, 531, 532, 532, 532, 533, 532, 532, 533, 533, 534, 534, 534, 533, 531, 531, 531, 532, 533, 534, 534, 534, 535, 535, 535, 535, 535, 534, 534, 534, 534, 535, 534, 534, 534, 535, 535, 536, 536, 536, 537, 537, 536, 535, 535, 536, 536, 536, 536, 536, 536, 537, 537, 537, 537, 537, 538, 537, 536, 536, 536, 537, 536, 536, 536, 536, 537, 537, 537, 537, 537, 537, 538, 539, 539, 539, 538, 538, 539, 539, 539, 539, 539, 540, 540, 541, 541, 541, 541, 541, 541, 541, 541, 541, 541, 541, 541, 541, 541, 541, 0, 0, 0, 0, 0, 0, 0, 0, 0, 0, 0, 542, 542, 542, 542, 541, 541, 541, 0, 0, 0, 0, 0, 0, 0, 0, 0, 0, 0, 547, 547, 0, 0, 0, 0, 0, 0, 0, 0, 0, 0, 0, 550, 550, 550, 551, 551, 552, 552, 552, 551, 549, 548, 547, 546, 546, 547, 547, 546, 546, 546, 546, 545, 544, 544, 544, 544, 544, 543, 543, 543, 543, 544, 544, 544, 544, 545, 545, 545, 545, 545, 545, 545, 545, 544, 544, 544, 543, 543, 543, 543, 542, 541, 541, 541, 541, 541, 541, 541, 542, 542, 542, 542, 542, 542, 542, 542, 542, 542, 542, 542, 542, 542, 542, 542, 542, 541, 541, 542, 542, 543, 544, 544, 545, 545, 544, 544, 544, 544, 544, 544, 544, 544, 544, 544, 544, 544, 544, 545, 545, 545, 545, 545, 545, 545, 545, 545, 545, 545, 545, 545, 545, 545, 545, 545, 545, 545, 545, 545, 545, 545, 545, 545, 545, 545, 545, 547, 546, 546, 547, 546, 546, 546, 546, 547, 547, 547, 547, 547, 547, 547, 547, 547, 547, 548, 548, 548, 548, 548, 548, 548, 548, 548, 548, 548, 548, 549, 549, 549, 549, 549, 550, 550, 550, 549, 549, 549, 549, 548, 548, 548, 0, 0, 0, 0, 0, 0, 0, 0, 0, 0, 0, 0, 0, 0, 0, 0, 0, 0, 0, 0, 0, 0, 0, 0, 0, 0, 0, 0, 0, 0, 0, 0, 0, 0, 0, 0, 0, 0, 0, 0, 0, 0, 0, 0, 0, 0, 0, 0, 0, 0, 0, 0, 0, 0, 0, 0, 0, 0, 0, 0, 0, 0, 0, 0, 0, 0, 0, 0, 0, 0, 0, 0, 0, 0, 0, 0, 0, 0, 0, 0, 0, 0, 0, 0, 0, 0, 0, 0, 0, 0, 0, 0, 0, 0, 0, 0, 0, 0, 0, 0, 0, 0, 0, 0, 0, 0, 0, 0, 0, 0, 0, 0, 0, 0, 0, 0, 0, 0, 0, 0, 0, 0, 0, 0, 0, 0, 0, 0, 0, 0, 0, 0, 0, 0, 0, 0, 0, 0, 0, 0, 0, 0, 0, 0, 0, 0, 0, 0, 0, 0, 0, 0, 0, 0, 0, 0, 0, 0, 0, 0,
       0, 0, 0, 0, 0, 0, 0, 0, 0, 0, 0, 0, 0, 0, 0, 0, 0, 0, 0, 0, 0, 0, 0, 0, 0, 0, 0, 0, 0, 0, 0, 0, 0, 0, 0, 0, 0, 0, 0, 0, 0, 0, 0, 0, 0, 0, 0, 0, 0, 0, 0, 0, 0, 0, 0, 0, 0, 0, 0, 0, 0, 0, 0, 0, 0, 0, 0, 0, 0, 0, 0, 0, 0, 0, 0, 0, 0, 0, 0, 0, 0, 0, 0, 0, 0, 0, 0, 0, 0, 0, 0, 0, 0, 0, 0, 0, 0, 0, 0, 0, 0, 0, 0, 0, 0, 0, 0, 0, 0, 0, 0, 0, 0, 0, 0, 0, 0, 0, 0, 0, 0, 0, 0, 0, 0, 581, 580, 580, 580, 580, 528, 528, 528, 528, 528, 528, 529, 530, 530, 530, 530, 530, 530, 531, 531, 530, 530, 528, 528, 527, 527, 528, 528, 530, 530, 530, 530, 530, 530, 530, 530, 530, 530, 531, 531, 531, 531, 533, 533, 533, 533, 533, 533, 533, 533, 533, 533, 535, 535, 536, 536, 536, 536, 534, 534, 534, 535, 535, 535, 535, 536, 536, 536, 536, 536, 536, 536, 536, 536, 536, 536, 536, 535, 535, 535, 536, 536, 536, 537, 538, 537, 537, 537, 537, 537, 537, 537, 536, 536, 536, 537, 537, 537, 537, 537, 538, 537, 536, 536, 536, 537, 536, 536, 536, 536, 537, 537, 537, 538, 538, 540, 540, 540, 540, 540, 541, 541, 540, 540, 540, 540, 540, 541, 541, 542, 542, 542, 542, 541, 541, 541, 541, 541, 541, 0, 0, 0, 0, 0, 0, 0, 0, 0, 0, 0, 0, 0, 0, 0, 0, 0, 0, 0, 0, 0, 0, 0, 0, 0, 0, 0, 0, 0, 0, 0, 0, 0, 0, 0, 0, 0, 0, 0, 0, 0, 0, 0, 0, 0, 0, 0, 0, 0, 0, 0, 553, 553, 552, 552, 551, 549, 549, 547, 547, 547, 547, 547, 547, 547, 547, 547, 547, 546, 545, 545, 545, 545, 545, 544, 544, 545, 545, 546, 546, 546, 547, 546, 546, 546, 546, 546, 546, 546, 545, 545, 546, 546, 545, 545, 545, 543, 543, 543, 543, 542, 542, 543, 543, 543, 543, 543, 543, 543, 543, 543, 543, 543, 542, 542, 543, 543, 543, 543, 543, 543, 543, 543, 543, 544, 544, 545, 545, 545, 545, 545, 545, 545, 545, 545, 545, 545, 545, 545, 545, 545, 545, 545, 545, 545, 545, 545, 545, 545, 545, 545, 545, 545, 545, 545, 545, 545, 545, 545, 545, 545, 545, 546, 546, 546, 546, 546, 546, 546, 546, 546, 547, 547, 547, 547, 547, 547, 547, 547, 547, 547, 547, 547, 547, 547, 547, 547, 547, 547, 548, 548, 548, 548, 548, 548, 548, 548, 548, 548, 548, 548, 549, 549, 549, 549, 549, 550, 550, 550, 549, 549, 549, 549, 548, 548, 548, 0, 0, 0, 0, 0, 0, 0, 0, 0, 0, 0, 0, 0, 0, 0, 0, 0, 0, 0, 0, 0, 0, 0, 0, 0, 0, 0, 0, 0, 0, 0, 0, 0, 0, 0, 0, 0, 0, 0, 0, 0, 0, 0, 0, 0, 0, 0, 0, 0, 0, 0, 0, 0, 0, 0, 0, 0, 0, 0, 0, 0, 0, 0, 0, 0, 0, 0, 0, 0, 0, 0, 0, 0, 0, 0, 0, 0, 0, 0, 0, 0, 0, 0, 0, 0, 0, 0, 0, 0, 0, 0, 0, 0, 0, 0, 0, 0, 0, 0, 0, 0, 0, 0, 0, 0, 0, 0, 0, 0, 0, 0, 0, 0, 0, 0, 0, 0, 0, 0, 0, 0, 0, 0, 0, 0, 0, 0, 0, 0, 0, 0, 0, 0, 0, 0, 0, 0, 0, 0, 0, 0, 0, 0, 0, 0, 0, 0, 0, 0, 0, 0, 0, 0, 0, 0, 0, 0, 0, 0, 0,
       0, 0, 0, 0, 0, 0, 0, 0, 0, 0, 0, 0, 0, 0, 0, 0, 0, 0, 0, 0, 0, 0, 0, 0, 0, 0, 0, 0, 0, 0, 0, 0, 0, 0, 0, 0, 0, 0, 0, 0, 0, 0, 0, 0, 0, 0, 0, 0, 0, 0, 0, 0, 0, 0, 0, 0, 0, 0, 0, 0, 0, 0, 0, 0, 0, 0, 0, 0, 0, 0, 0, 0, 0, 0, 0, 0, 0, 0, 0, 0, 0, 0, 0, 0, 0, 0, 0, 0, 0, 0, 0, 0, 0, 0, 0, 0, 0, 0, 0, 0, 0, 0, 0, 0, 0, 0, 0, 0, 0, 0, 0, 0, 0, 0, 0, 0, 0, 0, 0, 0, 0, 0, 0, 0, 0, 581, 580, 580, 580, 580, 580, 528, 528, 529, 530, 530, 530, 531, 531, 531, 531, 531, 531, 531, 531, 531, 532, 531, 531, 533, 536, 531, 531, 531, 531, 531, 531, 531, 531, 531, 531, 531, 531, 531, 532, 532, 532, 534, 533, 533, 534, 534, 534, 534, 533, 533, 533, 535, 536, 536, 536, 537, 537, 537, 536, 536, 536, 537, 536, 536, 536, 536, 536, 536, 536, 536, 536, 536, 536, 536, 536, 536, 536, 536, 536, 536, 536, 536, 538, 538, 538, 537, 537, 537, 538, 538, 538, 538, 538, 538, 538, 538, 538, 537, 537, 538, 537, 537, 537, 0, 537, 537, 536, 536, 536, 538, 538, 538, 540, 540, 540, 541, 543, 541, 541, 0, 0, 0, 0, 0, 0, 0, 0, 0, 0, 0, 542, 542, 542, 542, 542, 0, 0, 0, 0, 0, 0, 0, 0, 0, 0, 0, 0, 0, 0, 0, 0, 0, 0, 0, 0, 0, 0, 0, 0, 0, 0, 0, 0, 0, 0, 0, 0, 0, 0, 0, 0, 0, 0, 0, 0, 0, 0, 0, 0, 0, 0, 0, 0, 0, 0, 0, 0, 0, 0, 554, 553, 553, 553, 552, 551, 550, 549, 547, 547, 547, 547, 547, 547, 548, 548, 548, 548, 547, 547, 546, 546, 546, 546, 546, 546, 546, 546, 547, 547, 547, 547, 547, 547, 547, 547, 547, 547, 547, 547, 547, 547, 547, 547, 546, 546, 547, 546, 545, 545, 544, 544, 544, 544, 544, 544, 544, 544, 544, 544, 544, 543, 543, 543, 544, 544, 544, 544, 544, 544, 544, 544, 544, 544, 544, 546, 546, 546, 546, 546, 545, 545, 545, 545, 545, 545, 545, 545, 545, 545, 545, 545, 545, 546, 546, 546, 546, 546, 546, 546, 545, 545, 546, 546, 546, 546, 546, 546, 546, 546, 546, 546, 546, 547, 547, 547, 547, 547, 547, 547, 547, 547, 548, 548, 548, 547, 547, 547, 547, 547, 547, 547, 547, 547, 547, 547, 547, 548, 548, 548, 548, 548, 548, 548, 548, 548, 548, 548, 549, 549, 549, 549, 549, 549, 550, 550, 550, 550, 549, 549, 549, 549, 549, 548, 548, 0, 0, 0, 0, 0, 0, 0, 0, 0, 0, 0, 0, 0, 0, 0, 0, 0, 0, 0, 0, 0, 0, 0, 0, 0, 0, 0, 0, 0, 0, 0, 0, 0, 0, 0, 0, 0, 0, 0, 0, 0, 0, 0, 0, 0, 0, 0, 0, 0, 0, 0, 0, 0, 0, 0, 0, 0, 0, 0, 0, 0, 0, 0, 0, 0, 0, 0, 0, 0, 0, 0, 0, 0, 0, 0, 0, 0, 0, 0, 0, 0, 0, 0, 0, 0, 0, 0, 0, 0, 0, 0, 0, 0, 0, 0, 0, 0, 0, 0, 0, 0, 0, 0, 0, 0, 0, 0, 0, 0, 0, 0, 0, 0, 0, 0, 0, 0, 0, 0, 0, 0, 0, 0, 0, 0, 0, 0, 0, 0, 0, 0, 0, 0, 0, 0, 0, 0, 0, 0, 0, 0, 0, 0, 0, 0, 0, 0, 0, 0, 0, 0, 0, 0, 0, 0, 0, 0, 0, 0, 0,
       0, 0, 0, 0, 0, 0, 0, 0, 0, 0, 0, 0, 0, 0, 0, 0, 0, 0, 0, 0, 0, 0, 0, 0, 0, 0, 0, 0, 0, 0, 0, 0, 0, 0, 0, 0, 0, 0, 0, 0, 0, 0, 0, 0, 0, 0, 0, 0, 0, 0, 0, 0, 0, 0, 0, 0, 0, 0, 0, 0, 0, 0, 0, 0, 0, 0, 0, 0, 0, 0, 0, 0, 0, 0, 0, 0, 0, 0, 0, 0, 0, 0, 0, 0, 0, 0, 0, 0, 0, 0, 0, 0, 0, 0, 0, 0, 0, 0, 0, 0, 0, 0, 0, 0, 0, 0, 0, 0, 0, 0, 0, 0, 0, 0, 0, 0, 0, 0, 0, 0, 0, 0, 0, 0, 583, 581, 581, 581, 581, 581, 580, 579, 530, 530, 531, 531, 531, 532, 532, 532, 532, 532, 532, 532, 532, 532, 533, 533, 533, 534, 556, 556, 556, 556, 556, 556, 531, 531, 531, 531, 531, 531, 531, 531, 532, 532, 533, 535, 534, 534, 536, 535, 534, 534, 534, 534, 534, 536, 536, 536, 536, 537, 538, 537, 537, 537, 538, 539, 537, 537, 537, 537, 537, 536, 536, 537, 537, 537, 537, 537, 537, 537, 536, 536, 536, 536, 537, 537, 538, 538, 538, 538, 0, 0, 0, 0, 0, 0, 0, 0, 538, 538, 0, 0, 0, 0, 0, 0, 0, 0, 0, 0, 0, 0, 0, 0, 0, 0, 0, 0, 0, 0, 0, 0, 0, 0, 0, 0, 0, 0, 0, 0, 0, 0, 0, 0, 0, 0, 0, 0, 0, 0, 0, 0, 0, 0, 0, 0, 0, 0, 0, 0, 0, 0, 0, 0, 0, 0, 0, 0, 0, 0, 0, 0, 0, 0, 0, 0, 0, 0, 0, 0, 0, 0, 0, 0, 0, 0, 0, 0, 0, 0, 0, 0, 0, 0, 0, 0, 0, 0, 0, 0, 0, 0, 0, 0, 554, 553, 553, 552, 552, 551, 550, 550, 550, 0, 0, 0, 0, 0, 0, 0, 0, 0, 547, 547, 546, 546, 546, 546, 546, 546, 547, 547, 547, 548, 547, 547, 547, 547, 547, 547, 547, 547, 547, 547, 547, 547, 547, 547, 547, 547, 547, 546, 546, 546, 546, 546, 546, 545, 545, 545, 545, 545, 545, 545, 545, 544, 544, 545, 545, 545, 545, 545, 545, 545, 545, 545, 545, 545, 546, 546, 546, 546, 546, 546, 546, 546, 546, 546, 546, 545, 545, 545, 546, 546, 546, 546, 546, 547, 547, 547, 547, 547, 546, 546, 546, 546, 546, 546, 547, 547, 547, 547, 547, 547, 547, 547, 547, 547, 547, 547, 547, 547, 547, 548, 548, 548, 548, 548, 548, 548, 548, 548, 548, 548, 548, 548, 548, 548, 548, 548, 548, 548, 548, 548, 548, 548, 549, 549, 549, 549, 549, 549, 549, 549, 549, 550, 550, 550, 550, 550, 550, 550, 550, 550, 549, 549, 549, 549, 0, 0, 0, 0, 0, 0, 0, 0, 0, 0, 0, 0, 0, 0, 0, 0, 0, 0, 0, 0, 0, 0, 0, 0, 0, 0, 0, 0, 0, 0, 0, 0, 0, 0, 0, 0, 0, 0, 0, 0, 0, 0, 0, 0, 0, 0, 0, 0, 0, 0, 0, 0, 0, 0, 0, 0, 0, 0, 0, 0, 0, 0, 0, 0, 0, 0, 0, 0, 0, 0, 0, 0, 0, 0, 0, 0, 0, 0, 0, 0, 0, 0, 0, 0, 0, 0, 0, 0, 0, 0, 0, 0, 0, 0, 0, 0, 0, 0, 0, 0, 0, 0, 0, 0, 0, 0, 0, 0, 0, 0, 0, 0, 0, 0, 0, 0, 0, 0, 0, 0, 0, 0, 0, 0, 0, 0, 0, 0, 0, 0, 0, 0, 0, 0, 0, 0, 0, 0, 0, 0, 0, 0, 0, 0, 0, 0, 0, 0, 0, 0, 0, 0, 0, 0, 0, 0, 0, 0, 0, 0,
       0, 0, 0, 0, 0, 0, 0, 0, 0, 0, 0, 0, 0, 0, 0, 0, 0, 0, 0, 0, 0, 0, 0, 0, 0, 0, 0, 0, 0, 0, 0, 0, 0, 0, 0, 0, 0, 0, 0, 0, 0, 0, 0, 0, 0, 0, 0, 0, 0, 0, 0, 0, 0, 0, 0, 0, 0, 0, 0, 0, 0, 0, 0, 0, 0, 0, 0, 0, 0, 0, 0, 0, 0, 0, 0, 0, 0, 0, 0, 0, 0, 0, 0, 0, 0, 0, 0, 0, 0, 0, 0, 0, 0, 0, 0, 0, 0, 0, 0, 0, 0, 0, 0, 0, 0, 0, 0, 0, 0, 0, 0, 0, 0, 0, 0, 0, 0, 0, 0, 0, 0, 0, 0, 0, 583, 582, 581, 581, 581, 581, 580, 579, 579, 532, 532, 532, 532, 533, 533, 533, 533, 533, 533, 533, 533, 533, 533, 533, 533, 534, 555, 556, 556, 556, 556, 556, 556, 555, 555, 531, 531, 531, 531, 532, 533, 533, 534, 561, 536, 536, 536, 536, 536, 535, 535, 535, 536, 536, 536, 537, 537, 537, 537, 537, 537, 538, 538, 538, 538, 0, 0, 0, 0, 0, 0, 0, 0, 0, 0, 0, 0, 0, 537, 536, 536, 536, 537, 537, 538, 539, 0, 0, 0, 0, 0, 0, 0, 0, 0, 0, 0, 0, 0, 0, 0, 0, 0, 0, 0, 0, 0, 0, 0, 0, 0, 0, 0, 0, 0, 0, 0, 0, 0, 0, 0, 0, 0, 0, 0, 0, 0, 0, 0, 0, 0, 0, 0, 0, 0, 0, 0, 0, 0, 0, 0, 0, 0, 0, 0, 0, 0, 0, 0, 0, 0, 0, 0, 0, 0, 0, 0, 0, 0, 0, 0, 0, 0, 0, 0, 0, 0, 0, 0, 0, 0, 0, 0, 0, 0, 0, 0, 0, 0, 0, 0, 0, 0, 0, 0, 0, 0, 0, 0, 0, 0, 0, 0, 554, 554, 554, 0, 0, 0, 0, 0, 0, 0, 0, 0, 0, 0, 0, 0, 0, 0, 0, 0, 0, 548, 548, 548, 548, 547, 547, 548, 548, 548, 548, 548, 548, 548, 547, 547, 547, 547, 548, 548, 549, 548, 548, 548, 548, 547, 547, 547, 547, 547, 547, 547, 547, 547, 547, 547, 547, 546, 546, 545, 545, 545, 546, 546, 546, 546, 546, 546, 546, 546, 546, 546, 546, 547, 547, 547, 547, 547, 547, 547, 547, 547, 547, 546, 546, 546, 546, 546, 546, 546, 547, 547, 547, 547, 547, 547, 547, 547, 547, 547, 547, 547, 547, 547, 547, 547, 547, 547, 547, 547, 547, 547, 547, 547, 547, 547, 547, 547, 548, 548, 548, 549, 549, 549, 549, 549, 549, 548, 548, 548, 549, 548, 548, 548, 548, 548, 548, 548, 548, 548, 549, 549, 549, 549, 549, 549, 549, 549, 550, 550, 551, 551, 551, 551, 550, 550, 550, 550, 550, 550, 549, 549, 549, 0, 0, 0, 0, 0, 0, 0, 0, 0, 0, 0, 0, 0, 0, 0, 0, 0, 0, 0, 0, 0, 0, 0, 0, 0, 0, 0, 0, 0, 0, 0, 0, 0, 0, 0, 0, 0, 0, 0, 0, 0, 0, 0, 0, 0, 0, 0, 0, 0, 0, 0, 0, 0, 0, 0, 0, 0, 0, 0, 0, 0, 0, 0, 0, 0, 0, 0, 0, 0, 0, 0, 0, 0, 0, 0, 0, 0, 0, 0, 0, 0, 0, 0, 0, 0, 0, 0, 0, 0, 0, 0, 0, 0, 0, 0, 0, 0, 0, 0, 0, 0, 0, 0, 0, 0, 0, 0, 0, 0, 0, 0, 0, 0, 0, 0, 0, 0, 0, 0, 0, 0, 0, 0, 0, 0, 0, 0, 0, 0, 0, 0, 0, 0, 0, 0, 0, 0, 0, 0, 0, 0, 0, 0, 0, 0, 0, 0, 0, 0, 0, 0, 0, 0, 0, 0, 0, 0, 0, 0, 0,
       0, 0, 0, 0, 0, 0, 0, 0, 0, 0, 0, 0, 0, 0, 0, 0, 0, 0, 0, 0, 0, 0, 0, 0, 0, 0, 0, 0, 0, 0, 0, 0, 0, 0, 0, 0, 0, 0, 0, 0, 0, 0, 0, 0, 0, 0, 0, 0, 0, 0, 0, 0, 0, 0, 0, 0, 0, 0, 0, 0, 0, 0, 0, 0, 0, 0, 0, 0, 0, 0, 0, 0, 0, 0, 0, 0, 0, 0, 0, 0, 0, 0, 0, 0, 0, 0, 0, 0, 0, 0, 0, 0, 0, 0, 0, 0, 0, 0, 0, 0, 0, 0, 0, 0, 0, 0, 0, 0, 0, 0, 0, 0, 0, 0, 0, 0, 0, 0, 0, 0, 0, 0, 0, 0, 0, 582, 582, 582, 581, 581, 581, 580, 579, 532, 532, 532, 533, 533, 533, 534, 534, 533, 533, 533, 533, 533, 533, 533, 533, 555, 555, 556, 556, 556, 556, 556, 556, 556, 555, 555, 555, 556, 557, 558, 559, 560, 561, 561, 562, 562, 563, 564, 565, 565, 565, 565, 565, 565, 565, 537, 537, 537, 537, 537, 537, 537, 537, 0, 0, 0, 0, 0, 0, 0, 0, 0, 0, 0, 0, 0, 0, 0, 0, 0, 0, 0, 0, 0, 0, 0, 0, 0, 0, 0, 0, 0, 0, 0, 0, 0, 0, 0, 0, 0, 0, 0, 0, 0, 0, 0, 0, 0, 0, 0, 0, 0, 0, 0, 0, 0, 0, 0, 0, 0, 0, 0, 0, 0, 0, 0, 0, 0, 0, 0, 0, 0, 0, 0, 0, 0, 0, 0, 0, 0, 0, 0, 0, 0, 0, 0, 0, 0, 0, 0, 0, 0, 0, 0, 0, 0, 0, 0, 0, 0, 0, 0, 0, 0, 0, 0, 0, 0, 0, 0, 0, 0, 0, 0, 0, 0, 0, 0, 0, 0, 0, 0, 0, 0, 0, 0, 0, 0, 0, 0, 0, 0, 0, 0, 0, 0, 0, 0, 0, 0, 0, 0, 0, 0, 0, 0, 0, 0, 0, 0, 0, 0, 0, 0, 0, 549, 549, 549, 548, 548, 548, 549, 548, 548, 548, 548, 548, 548, 548, 548, 548, 549, 549, 549, 549, 549, 549, 549, 549, 549, 549, 549, 548, 548, 548, 548, 548, 548, 548, 548, 549, 549, 549, 549, 547, 547, 547, 547, 547, 547, 547, 547, 547, 547, 547, 547, 547, 547, 547, 547, 547, 547, 547, 547, 547, 547, 547, 547, 547, 547, 547, 547, 547, 547, 547, 548, 548, 548, 548, 548, 548, 548, 547, 547, 547, 547, 547, 547, 547, 547, 547, 547, 547, 547, 547, 547, 547, 547, 547, 547, 548, 549, 549, 549, 549, 549, 549, 549, 549, 549, 549, 549, 549, 549, 549, 549, 549, 549, 549, 549, 549, 549, 549, 549, 549, 549, 549, 550, 550, 550, 550, 551, 551, 551, 551, 551, 551, 551, 551, 551, 550, 550, 550, 549, 549, 549, 0, 0, 0, 0, 0, 0, 0, 0, 0, 0, 0, 0, 0, 0, 0, 0, 0, 0, 0, 0, 0, 0, 0, 0, 0, 0, 0, 0, 0, 0, 0, 0, 0, 0, 0, 0, 0, 0, 0, 0, 0, 0, 0, 0, 0, 0, 0, 0, 0, 0, 0, 0, 0, 0, 0, 0, 0, 0, 0, 0, 0, 0, 0, 0, 0, 0, 0, 0, 0, 0, 0, 0, 0, 0, 0, 0, 0, 0, 0, 0, 0, 0, 0, 0, 0, 0, 0, 0, 0, 0, 0, 0, 0, 0, 0, 0, 0, 0, 0, 0, 0, 0, 0, 0, 0, 0, 0, 0, 0, 0, 0, 0, 0, 0, 0, 0, 0, 0, 0, 0, 0, 0, 0, 0, 0, 0, 0, 0, 0, 0, 0, 0, 0, 0, 0, 0, 0, 0, 0, 0, 0, 0, 0, 0, 0, 0, 0, 0, 0, 0, 0, 0, 0, 0, 0, 0, 0, 0, 0, 0,
       0, 0, 0, 0, 0, 0, 0, 0, 0, 0, 0, 0, 0, 0, 0, 0, 0, 0, 0, 0, 0, 0, 0, 0, 0, 0, 0, 0, 0, 0, 0, 0, 0, 0, 0, 0, 0, 0, 0, 0, 0, 0, 0, 0, 0, 0, 0, 0, 0, 0, 0, 0, 0, 0, 0, 0, 0, 0, 0, 0, 0, 0, 0, 0, 0, 0, 0, 0, 0, 0, 0, 0, 0, 0, 0, 0, 0, 0, 0, 0, 0, 0, 0, 0, 0, 0, 0, 0, 0, 0, 0, 0, 0, 0, 0, 0, 0, 0, 0, 0, 0, 0, 0, 0, 0, 0, 0, 0, 0, 0, 0, 0, 0, 0, 0, 0, 0, 0, 0, 0, 0, 0, 0, 0, 0, 583, 583, 582, 582, 582, 582, 581, 580, 532, 532, 532, 533, 533, 534, 534, 536, 567, 567, 566, 565, 565, 565, 565, 557, 557, 557, 557, 557, 557, 556, 556, 556, 556, 556, 556, 556, 556, 557, 558, 559, 560, 561, 561, 562, 562, 563, 564, 565, 565, 565, 565, 565, 565, 565, 565, 580, 579, 579, 583, 583, 583, 585, 585, 585, 598, 0, 0, 0, 597, 0, 0, 0, 0, 0, 0, 0, 0, 0, 0, 0, 0, 0, 0, 0, 0, 0, 0, 0, 0, 0, 0, 0, 0, 0, 0, 0, 0, 0, 0, 0, 0, 0, 0, 0, 0, 0, 0, 0, 0, 0, 0, 0, 0, 0, 0, 0, 0, 0, 0, 0, 0, 0, 0, 0, 0, 0, 0, 0, 0, 0, 0, 0, 0, 0, 0, 0, 0, 0, 0, 0, 0, 0, 0, 0, 0, 0, 0, 0, 0, 0, 0, 0, 0, 0, 0, 0, 0, 0, 0, 0, 0, 0, 0, 0, 0, 0, 0, 0, 0, 0, 0, 0, 0, 0, 0, 0, 0, 0, 0, 0, 0, 0, 0, 0, 0, 0, 0, 0, 0, 0, 0, 0, 0, 0, 0, 0, 0, 0, 0, 0, 0, 0, 0, 0, 0, 0, 0, 0, 0, 0, 0, 0, 0, 0, 0, 0, 0, 0, 0, 0, 550, 550, 549, 548, 548, 549, 550, 550, 550, 550, 550, 550, 550, 550, 550, 550, 550, 550, 550, 550, 551, 549, 549, 549, 549, 549, 548, 548, 549, 550, 551, 550, 550, 550, 550, 550, 550, 549, 549, 548, 548, 548, 547, 547, 547, 548, 548, 548, 547, 547, 548, 548, 548, 548, 548, 548, 548, 548, 548, 548, 548, 548, 548, 548, 548, 549, 549, 549, 549, 549, 549, 549, 548, 548, 548, 548, 548, 548, 548, 548, 548, 548, 548, 548, 548, 548, 548, 548, 548, 548, 550, 550, 550, 550, 550, 550, 550, 550, 550, 550, 550, 550, 550, 550, 549, 549, 549, 549, 549, 550, 550, 550, 550, 551, 551, 550, 550, 550, 551, 551, 552, 552, 552, 552, 552, 551, 551, 551, 551, 551, 551, 550, 549, 549, 0, 0, 0, 0, 0, 0, 0, 0, 0, 0, 0, 0, 0, 0, 0, 0, 0, 0, 0, 0, 0, 0, 0, 0, 0, 0, 0, 0, 0, 0, 0, 0, 0, 0, 0, 0, 0, 0, 0, 0, 0, 0, 0, 0, 0, 0, 0, 0, 0, 0, 0, 0, 0, 0, 0, 0, 0, 0, 0, 0, 0, 0, 0, 0, 0, 0, 0, 0, 0, 0, 0, 0, 0, 0, 0, 0, 0, 0, 0, 0, 0, 0, 0, 0, 0, 0, 0, 0, 0, 0, 0, 0, 0, 0, 0, 0, 0, 0, 0, 0, 0, 0, 0, 0, 0, 0, 0, 0, 0, 0, 0, 0, 0, 0, 0, 0, 0, 0, 0, 0, 0, 0, 0, 0, 0, 0, 0, 0, 0, 0, 0, 0, 0, 0, 0, 0, 0, 0, 0, 0, 0, 0, 0, 0, 0, 0, 0, 0, 0, 0, 0, 0, 0, 0, 0, 0, 0, 0, 0, 0, 0,
       0, 0, 0, 0, 0, 0, 0, 0, 0, 0, 0, 0, 0, 0, 0, 0, 0, 0, 0, 0, 0, 0, 0, 0, 0, 0, 0, 0, 0, 0, 0, 0, 0, 0, 0, 0, 0, 0, 0, 0, 0, 0, 0, 0, 0, 0, 0, 0, 0, 0, 0, 0, 0, 0, 0, 0, 0, 0, 0, 0, 0, 0, 0, 0, 0, 0, 0, 0, 0, 0, 0, 0, 0, 0, 0, 0, 0, 0, 0, 0, 0, 0, 0, 0, 0, 0, 0, 0, 0, 0, 0, 0, 0, 0, 0, 0, 0, 0, 0, 0, 0, 0, 0, 0, 0, 0, 0, 0, 0, 0, 0, 0, 0, 0, 0, 0, 0, 0, 0, 0, 0, 0, 0, 0, 0, 0, 582, 582, 582, 582, 582, 581, 581, 580, 533, 533, 533, 533, 534, 534, 568, 567, 567, 566, 565, 565, 565, 564, 562, 560, 559, 558, 558, 557, 557, 556, 556, 556, 556, 556, 556, 556, 557, 558, 559, 560, 561, 561, 562, 562, 563, 564, 565, 565, 565, 565, 565, 566, 566, 573, 577, 579, 579, 583, 583, 583, 585, 585, 585, 598, 598, 597, 597, 597, 597, 0, 0, 0, 0, 0, 0, 0, 0, 0, 0, 0, 0, 0, 0, 0, 0, 0, 0, 0, 0, 0, 0, 0, 0, 0, 0, 0, 0, 0, 0, 0, 0, 0, 0, 0, 0, 0, 0, 0, 0, 0, 0, 0, 0, 0, 0, 0, 0, 0, 0, 0, 0, 0, 0, 0, 0, 0, 0, 0, 0, 0, 0, 0, 0, 0, 0, 0, 0, 0, 0, 0, 0, 0, 0, 0, 0, 0, 0, 0, 0, 0, 0, 0, 0, 0, 0, 0, 0, 0, 0, 0, 0, 0, 0, 0, 0, 0, 0, 0, 0, 0, 0, 0, 0, 0, 0, 0, 0, 0, 0, 0, 0, 0, 0, 0, 0, 0, 0, 0, 0, 0, 0, 0, 0, 0, 0, 0, 0, 0, 0, 0, 0, 0, 0, 0, 0, 0, 0, 0, 0, 0, 0, 0, 0, 0, 0, 0, 0, 0, 0, 0, 0, 550, 550, 0, 0, 0, 553, 551, 551, 551, 551, 550, 550, 550, 550, 550, 551, 551, 552, 552, 551, 551, 551, 551, 551, 551, 551, 551, 552, 552, 552, 551, 551, 551, 550, 550, 550, 550, 550, 550, 550, 549, 547, 547, 548, 548, 548, 548, 548, 549, 549, 549, 549, 549, 549, 549, 549, 548, 548, 548, 548, 549, 549, 549, 549, 550, 550, 550, 550, 550, 550, 549, 549, 549, 549, 549, 549, 548, 548, 549, 549, 548, 548, 548, 548, 548, 548, 548, 549, 550, 550, 550, 550, 550, 550, 551, 551, 551, 550, 550, 551, 551, 551, 550, 550, 550, 550, 551, 551, 551, 551, 552, 552, 552, 552, 552, 552, 553, 552, 552, 552, 552, 552, 552, 552, 552, 552, 552, 552, 552, 551, 550, 550, 0, 0, 0, 0, 0, 0, 0, 0, 0, 0, 0, 0, 0, 0, 0, 0, 0, 0, 0, 0, 0, 0, 0, 0, 0, 0, 0, 0, 0, 0, 0, 0, 0, 0, 0, 0, 0, 0, 0, 0, 0, 0, 0, 0, 0, 0, 0, 0, 0, 0, 0, 0, 0, 0, 0, 0, 0, 0, 0, 0, 0, 0, 0, 0, 0, 0, 0, 0, 0, 0, 0, 0, 0, 0, 0, 0, 0, 0, 0, 0, 0, 0, 0, 0, 0, 0, 0, 0, 0, 0, 0, 0, 0, 0, 0, 0, 0, 0, 0, 0, 0, 0, 0, 0, 0, 0, 0, 0, 0, 0, 0, 0, 0, 0, 0, 0, 0, 0, 0, 0, 0, 0, 0, 0, 0, 0, 0, 0, 0, 0, 0, 0, 0, 0, 0, 0, 0, 0, 0, 0, 0, 0, 0, 0, 0, 0, 0, 0, 0, 0, 0, 0, 0, 0, 0, 0, 0, 0, 0, 0, 0 ]
