%YAML:1.0
depth: !!opencv-matrix
   rows: 37
   cols: 640
   dt: w
   data: [ 0, 0, 0, 0, 0, 0, 0, 0, 0, 0, 0, 0, 0, 0, 0, 0, 0, 0, 0, 0, 0, 0, 0, 0, 0, 0, 0, 0, 0, 0, 0, 0, 0, 0, 0, 0, 0, 0, 0, 0, 0, 0, 0, 0, 0, 0, 0, 0, 0, 0, 0, 0, 0, 0, 0, 0, 0, 0, 0, 0, 0, 0, 0, 0, 0, 0, 0, 0, 0, 0, 0, 0, 0, 0, 0, 0, 0, 0, 0, 0, 0, 0, 0, 0, 0, 0, 0, 0, 0, 0, 0, 0, 0, 0, 0, 0, 0, 0, 0, 0, 0, 0, 0, 0, 0, 0, 0, 0, 0, 0, 0, 0, 0, 0, 0, 0, 0, 0, 0, 0, 0, 0, 0, 0, 0, 0, 0, 0, 527, 525, 525, 524, 524, 524, 523, 523, 523, 523, 523, 523, 523, 523, 523, 523, 523, 523, 523, 523, 523, 523, 523, 523, 523, 524, 524, 524, 523, 523, 523, 523, 523, 524, 524, 524, 524, 524, 524, 524, 524, 525, 525, 525, 525, 525, 525, 525, 525, 526, 526, 525, 525, 525, 526, 526, 526, 526, 526, 526, 526, 526, 525, 525, 525, 526, 526, 526, 525, 525, 526, 525, 525, 525, 525, 525, 526, 526, 526, 527, 527, 527, 527, 527, 527, 527, 527, 527, 527, 527, 527, 528, 528, 528, 528, 528, 528, 527, 527, 527, 527, 528, 528, 528, 528, 527, 527, 528, 528, 528, 528, 528, 528, 528, 528, 528, 528, 529, 529, 529, 529, 529, 529, 529, 529, 530, 530, 529, 529, 529, 529, 529, 529, 530, 530, 530, 531, 531, 531, 531, 531, 531, 531, 531, 531, 531, 531, 530, 530, 530, 530, 531, 531, 531, 531, 531, 531, 532, 532, 532, 532, 532, 532, 532, 531, 531, 531, 532, 532, 532, 532, 533, 533, 533, 533, 533, 533, 533, 533, 533, 533, 533, 534, 535, 535, 535, 535, 536, 536, 536, 536, 536, 536, 536, 536, 536, 536, 536, 536, 536, 536, 536, 536, 536, 537, 537, 537, 537, 537, 538, 538, 539, 539, 539, 539, 539, 540, 541, 541, 541, 541, 541, 543, 543, 542, 542, 542, 542, 542, 541, 541, 543, 544, 545, 545, 545, 546, 546, 546, 546, 546, 546, 547, 547, 547, 547, 547, 547, 547, 548, 548, 548, 548, 548, 548, 548, 547, 547, 547, 547, 0, 0, 0, 0, 0, 0, 0, 0, 0, 0, 0, 0, 0, 0, 0, 0, 0, 0, 0, 0, 0, 0, 0, 0, 0, 0, 0, 0, 0, 0, 0, 0, 0, 0, 0, 0, 0, 0, 0, 0, 0, 0, 0, 0, 0, 0, 0, 0, 0, 0, 0, 0, 0, 0, 0, 0, 0, 0, 0, 0, 0, 0, 0, 0, 0, 0, 0, 0, 0, 0, 0, 0, 0, 0, 0, 0, 0, 0, 0, 0, 0, 0, 0, 0, 0, 0, 0, 0, 0, 0, 0, 0, 0, 0, 0, 0, 0, 0, 0, 0, 0, 0, 0, 0, 0, 0, 0, 0, 0, 0, 0, 0, 0, 0, 0, 0, 0, 0, 0, 0, 0, 0, 0, 0, 0, 0, 0, 0, 0, 0, 0, 0, 0, 0, 0, 0, 0, 0, 0, 0, 0, 0, 0, 0, 0, 0, 0, 0, 0, 0, 0, 0, 0, 0, 0, 0, 0, 0, 0, 0, 0, 0, 0, 0, 0, 0, 0, 0, 0, 0, 0, 0, 0, 0, 0, 0, 0, 0, 0, 0, 0, 0, 0, 0, 0, 0, 0, 0, 0, 0, 0, 0, 0, 0, 0, 0, 0, 0, 0, 0, 0, 0, 0, 0, 0, 0, 0, 0, 0, 0, 0, 0, 0, 0, 0, 0, 0, 0, 0, 0, 0, 0, 0, 0, 0, 0, 0, 0, 0, 0, 0, 0, 0, 0, 0, 0, 0, 0, 0, 0, 0, 0, 0, 0, 0, 0, 0, 0, 0, 0, 0, 0,
       0, 0, 0, 0, 0, 0, 0, 0, 0, 0, 0, 0, 0, 0, 0, 0, 0, 0, 0, 0, 0, 0, 0, 0, 0, 0, 0, 0, 0, 0, 0, 0, 0, 0, 0, 0, 0, 0, 0, 0, 0, 0, 0, 0, 0, 0, 0, 0, 0, 0, 0, 0, 0, 0, 0, 0, 0, 0, 0, 0, 0, 0, 0, 0, 0, 0, 0, 0, 0, 0, 0, 0, 0, 0, 0, 0, 0, 0, 0, 0, 0, 0, 0, 0, 0, 0, 0, 0, 0, 0, 0, 0, 0, 0, 0, 0, 0, 0, 0, 0, 0, 0, 0, 0, 0, 0, 0, 0, 0, 0, 0, 0, 0, 0, 0, 0, 0, 0, 0, 0, 0, 0, 0, 0, 0, 0, 0, 0, 526, 524, 524, 523, 523, 523, 523, 523, 523, 523, 523, 523, 523, 523, 523, 523, 523, 523, 523, 523, 523, 523, 523, 523, 523, 523, 523, 523, 523, 523, 523, 523, 523, 523, 523, 524, 524, 524, 524, 524, 524, 524, 524, 524, 524, 524, 523, 523, 524, 524, 524, 524, 524, 524, 525, 525, 524, 524, 525, 525, 525, 525, 524, 524, 525, 525, 525, 525, 524, 524, 525, 525, 525, 524, 524, 525, 525, 526, 526, 526, 527, 527, 527, 527, 527, 527, 527, 527, 527, 527, 527, 527, 527, 527, 527, 527, 527, 527, 527, 527, 527, 527, 527, 527, 527, 527, 527, 527, 527, 528, 528, 528, 528, 528, 528, 528, 528, 528, 528, 528, 528, 529, 529, 529, 529, 530, 529, 529, 529, 529, 529, 529, 529, 529, 529, 529, 530, 530, 530, 530, 530, 530, 530, 530, 530, 531, 531, 530, 530, 530, 530, 530, 530, 531, 531, 531, 531, 531, 531, 531, 531, 531, 531, 531, 531, 531, 531, 531, 531, 531, 531, 531, 531, 531, 532, 532, 532, 532, 532, 533, 533, 533, 533, 534, 534, 534, 534, 535, 535, 535, 535, 535, 535, 535, 535, 535, 535, 535, 535, 535, 536, 536, 536, 536, 536, 536, 536, 536, 536, 536, 536, 537, 537, 538, 539, 539, 540, 540, 540, 540, 540, 541, 541, 541, 541, 541, 541, 541, 541, 541, 541, 542, 543, 544, 545, 545, 546, 546, 546, 546, 546, 546, 545, 545, 546, 546, 547, 547, 547, 547, 547, 547, 547, 547, 548, 547, 547, 547, 547, 548, 548, 548, 548, 550, 550, 550, 550, 550, 550, 0, 0, 0, 0, 0, 0, 0, 0, 0, 0, 0, 0, 0, 0, 0, 0, 0, 0, 0, 0, 0, 0, 0, 0, 0, 0, 0, 0, 0, 0, 0, 0, 0, 0, 0, 0, 0, 0, 0, 0, 0, 0, 0, 0, 0, 0, 0, 0, 0, 0, 0, 0, 0, 0, 0, 0, 0, 0, 0, 0, 0, 0, 0, 0, 0, 0, 0, 0, 0, 0, 0, 0, 0, 0, 0, 0, 0, 0, 0, 0, 0, 0, 0, 0, 0, 0, 0, 0, 0, 0, 0, 0, 0, 0, 0, 0, 0, 0, 0, 0, 0, 0, 0, 0, 0, 0, 0, 0, 0, 0, 0, 0, 0, 0, 0, 0, 0, 0, 0, 0, 0, 0, 0, 0, 0, 0, 0, 0, 0, 0, 0, 0, 0, 0, 0, 0, 0, 0, 0, 0, 0, 0, 0, 0, 0, 0, 0, 0, 0, 0, 0, 0, 0, 0, 0, 0, 0, 0, 0, 0, 0, 0, 0, 0, 0, 0, 0, 0, 0, 0, 0, 0, 0, 0, 0, 0, 0, 0, 0, 0, 0, 0, 0, 0, 0, 0, 0, 0, 0, 0, 0, 0, 0, 0, 0, 0, 0, 0, 0, 0, 0, 0, 0, 0, 0, 0, 0, 0, 0, 0, 0, 0, 0, 0, 0, 0, 0, 0, 0, 0, 0, 0, 0, 0, 0, 0, 0, 0, 0, 0, 0, 0, 0, 0, 0, 0, 0, 0, 0, 0, 0, 0, 0,
       0, 0, 0, 0, 0, 0, 0, 0, 0, 0, 0, 0, 0, 0, 0, 0, 0, 0, 0, 0, 0, 0, 0, 0, 0, 0, 0, 0, 0, 0, 0, 0, 0, 0, 0, 0, 0, 0, 0, 0, 0, 0, 0, 0, 0, 0, 0, 0, 0, 0, 0, 0, 0, 0, 0, 0, 0, 0, 0, 0, 0, 0, 0, 0, 0, 0, 0, 0, 0, 0, 0, 0, 0, 0, 0, 0, 0, 0, 0, 0, 0, 0, 0, 0, 0, 0, 0, 0, 0, 0, 0, 0, 0, 0, 0, 0, 0, 0, 0, 0, 0, 0, 0, 0, 0, 0, 0, 0, 0, 0, 0, 0, 0, 0, 0, 0, 0, 0, 0, 0, 0, 0, 0, 0, 0, 0, 0, 0, 524, 523, 523, 523, 523, 522, 522, 522, 522, 522, 522, 522, 522, 522, 522, 522, 522, 522, 522, 522, 523, 523, 523, 522, 522, 523, 523, 523, 523, 523, 523, 523, 523, 523, 523, 524, 524, 524, 524, 524, 524, 524, 524, 524, 524, 523, 523, 523, 523, 523, 523, 523, 523, 523, 524, 524, 524, 524, 524, 524, 524, 524, 524, 524, 524, 524, 524, 524, 524, 524, 524, 524, 524, 524, 524, 524, 524, 524, 524, 524, 525, 526, 527, 527, 526, 526, 527, 527, 527, 527, 527, 527, 527, 527, 527, 527, 527, 527, 527, 527, 527, 527, 527, 527, 527, 527, 527, 527, 527, 527, 527, 527, 527, 527, 527, 527, 527, 527, 528, 528, 528, 528, 528, 528, 528, 529, 529, 529, 529, 528, 528, 529, 529, 529, 529, 529, 529, 529, 530, 530, 530, 530, 530, 530, 530, 530, 530, 530, 530, 529, 529, 530, 530, 530, 531, 530, 530, 531, 530, 530, 530, 530, 530, 531, 530, 530, 530, 531, 531, 531, 531, 531, 531, 531, 531, 531, 531, 531, 532, 532, 533, 533, 533, 533, 533, 533, 533, 534, 534, 534, 534, 534, 534, 534, 534, 534, 534, 534, 534, 535, 535, 535, 536, 536, 536, 536, 536, 536, 536, 536, 536, 536, 537, 537, 538, 538, 539, 539, 539, 539, 539, 539, 538, 538, 540, 541, 541, 541, 541, 541, 541, 541, 541, 541, 542, 543, 543, 544, 545, 545, 545, 545, 545, 545, 545, 545, 546, 546, 546, 547, 547, 547, 547, 547, 547, 547, 547, 547, 547, 548, 548, 548, 548, 549, 549, 549, 549, 549, 549, 549, 548, 548, 548, 549, 549, 549, 0, 0, 0, 0, 0, 0, 0, 0, 0, 0, 0, 0, 0, 0, 0, 0, 0, 0, 0, 554, 554, 0, 0, 0, 0, 0, 0, 0, 0, 0, 0, 0, 0, 0, 0, 0, 0, 0, 0, 0, 0, 0, 0, 0, 0, 0, 0, 0, 0, 0, 0, 0, 0, 0, 0, 0, 0, 0, 0, 0, 0, 0, 0, 0, 0, 0, 0, 0, 0, 0, 0, 0, 0, 0, 0, 0, 0, 0, 0, 0, 0, 0, 0, 0, 0, 0, 0, 0, 0, 0, 0, 0, 0, 0, 0, 0, 0, 0, 0, 0, 0, 0, 0, 0, 0, 0, 0, 0, 0, 0, 0, 0, 0, 0, 0, 0, 0, 0, 0, 0, 0, 0, 0, 0, 0, 0, 0, 0, 0, 0, 0, 0, 0, 0, 0, 0, 0, 0, 0, 0, 0, 0, 0, 0, 0, 0, 0, 0, 0, 0, 0, 0, 0, 0, 0, 0, 0, 0, 0, 0, 0, 0, 0, 0, 0, 0, 0, 0, 0, 0, 0, 0, 0, 0, 0, 0, 0, 0, 0, 0, 0, 0, 0, 0, 0, 0, 0, 0, 0, 0, 0, 0, 0, 0, 0, 0, 0, 0, 0, 0, 0, 0, 0, 0, 0, 0, 0, 0, 0, 0, 0, 0, 0, 0, 0, 0, 0, 0, 0, 0, 0, 0, 0, 0, 0, 0, 0, 0, 0, 0, 0, 0, 0, 0, 0, 0,
       0, 0, 0, 0, 0, 0, 0, 0, 0, 0, 0, 0, 0, 0, 0, 0, 0, 0, 0, 0, 0, 0, 0, 0, 0, 0, 0, 0, 0, 0, 0, 0, 0, 0, 0, 0, 0, 0, 0, 0, 0, 0, 0, 0, 0, 0, 0, 0, 0, 0, 0, 0, 0, 0, 0, 0, 0, 0, 0, 0, 0, 0, 0, 0, 0, 0, 0, 0, 0, 0, 0, 0, 0, 0, 0, 0, 0, 0, 0, 0, 0, 0, 0, 0, 0, 0, 0, 0, 0, 0, 0, 0, 0, 0, 0, 0, 0, 0, 0, 0, 0, 0, 0, 0, 0, 0, 0, 0, 0, 0, 0, 0, 0, 0, 0, 0, 0, 0, 0, 0, 0, 0, 0, 0, 0, 0, 0, 0, 524, 523, 523, 522, 521, 521, 521, 521, 521, 521, 521, 521, 521, 521, 522, 522, 522, 522, 522, 522, 522, 522, 522, 522, 522, 522, 522, 521, 521, 522, 522, 523, 523, 523, 523, 524, 524, 524, 523, 523, 523, 523, 523, 523, 523, 523, 523, 523, 523, 523, 523, 523, 523, 523, 523, 523, 523, 523, 523, 524, 524, 524, 523, 523, 524, 523, 523, 523, 523, 523, 523, 523, 523, 524, 524, 524, 524, 523, 523, 523, 524, 525, 525, 525, 525, 525, 526, 526, 526, 526, 526, 527, 526, 526, 526, 526, 526, 526, 527, 527, 527, 527, 527, 527, 527, 527, 527, 527, 527, 527, 527, 527, 527, 527, 527, 527, 527, 527, 527, 527, 527, 528, 528, 528, 528, 529, 529, 528, 528, 528, 528, 528, 528, 528, 528, 528, 528, 529, 529, 529, 529, 529, 529, 529, 529, 529, 529, 529, 529, 529, 529, 529, 529, 529, 529, 530, 530, 530, 530, 530, 529, 529, 529, 529, 529, 529, 529, 529, 530, 530, 530, 531, 531, 531, 531, 531, 531, 531, 531, 532, 532, 532, 532, 532, 532, 532, 532, 532, 532, 533, 533, 533, 533, 533, 533, 533, 533, 533, 533, 534, 534, 534, 534, 535, 535, 536, 536, 536, 536, 536, 536, 536, 536, 536, 537, 537, 538, 538, 538, 538, 538, 538, 538, 538, 538, 539, 540, 540, 540, 541, 541, 541, 541, 541, 541, 541, 542, 542, 542, 541, 541, 542, 544, 544, 544, 544, 545, 545, 545, 546, 546, 546, 547, 547, 547, 547, 547, 547, 548, 547, 547, 548, 548, 549, 549, 549, 548, 548, 549, 548, 548, 548, 548, 549, 549, 550, 551, 552, 552, 552, 551, 552, 553, 0, 0, 0, 0, 0, 0, 0, 0, 0, 0, 555, 555, 554, 554, 0, 555, 555, 0, 0, 0, 0, 0, 0, 0, 0, 0, 0, 0, 0, 0, 0, 0, 0, 0, 0, 0, 0, 0, 0, 0, 0, 0, 0, 0, 0, 0, 0, 0, 0, 0, 0, 0, 0, 0, 0, 0, 0, 0, 0, 0, 0, 0, 0, 0, 0, 0, 0, 0, 0, 0, 0, 0, 0, 0, 0, 0, 0, 0, 0, 0, 0, 0, 0, 0, 0, 0, 0, 0, 0, 0, 0, 0, 0, 0, 0, 0, 0, 0, 0, 0, 0, 0, 0, 0, 0, 0, 0, 0, 0, 0, 0, 0, 0, 0, 0, 0, 0, 0, 0, 0, 0, 0, 0, 0, 0, 0, 0, 0, 0, 0, 0, 0, 0, 0, 0, 0, 0, 0, 0, 0, 0, 0, 0, 0, 0, 0, 0, 0, 0, 0, 0, 0, 0, 0, 0, 0, 0, 0, 0, 0, 0, 0, 0, 0, 0, 0, 0, 0, 0, 0, 0, 0, 0, 0, 0, 0, 0, 0, 0, 0, 0, 0, 0, 0, 0, 0, 0, 0, 0, 0, 0, 0, 0, 0, 0, 0, 0, 0, 0, 0, 0, 0, 0, 0, 0, 0, 0, 0, 0, 0, 0, 0, 0, 0, 0, 0, 0, 0, 0, 0, 0, 0, 0, 0, 0, 0, 0, 0, 0,
       0, 0, 0, 0, 0, 0, 0, 0, 0, 0, 0, 0, 0, 0, 0, 0, 0, 0, 0, 0, 0, 0, 0, 0, 0, 0, 0, 0, 0, 0, 0, 0, 0, 0, 0, 0, 0, 0, 0, 0, 0, 0, 0, 0, 0, 0, 0, 0, 0, 0, 0, 0, 0, 0, 0, 0, 0, 0, 0, 0, 0, 0, 0, 0, 0, 0, 0, 0, 0, 0, 0, 0, 0, 0, 0, 0, 0, 0, 0, 0, 0, 0, 0, 0, 0, 0, 0, 0, 0, 0, 0, 0, 0, 0, 0, 0, 0, 0, 0, 0, 0, 0, 0, 0, 0, 0, 0, 0, 0, 0, 0, 0, 0, 0, 0, 0, 0, 0, 0, 0, 0, 0, 0, 0, 0, 0, 0, 0, 522, 522, 522, 521, 521, 520, 520, 520, 521, 521, 521, 521, 520, 520, 521, 521, 521, 521, 521, 522, 522, 522, 522, 521, 521, 521, 521, 520, 520, 520, 521, 521, 522, 523, 523, 523, 523, 523, 523, 523, 523, 523, 523, 523, 523, 523, 523, 523, 523, 523, 523, 523, 523, 523, 523, 523, 523, 523, 523, 523, 523, 523, 523, 523, 523, 523, 523, 523, 523, 523, 523, 523, 523, 523, 523, 523, 523, 523, 523, 523, 524, 525, 525, 525, 525, 525, 525, 525, 526, 525, 525, 525, 526, 525, 525, 525, 525, 525, 526, 526, 526, 527, 526, 526, 526, 526, 526, 526, 526, 526, 526, 526, 527, 527, 527, 527, 527, 527, 527, 527, 527, 527, 528, 528, 528, 528, 528, 528, 528, 528, 528, 528, 528, 528, 528, 528, 528, 528, 528, 528, 528, 529, 529, 529, 529, 529, 529, 528, 528, 528, 528, 528, 528, 528, 529, 529, 529, 529, 529, 529, 529, 529, 529, 529, 529, 529, 529, 529, 529, 529, 529, 530, 530, 530, 530, 530, 530, 531, 531, 531, 531, 531, 531, 531, 531, 531, 532, 532, 532, 532, 532, 532, 532, 532, 532, 533, 533, 533, 533, 534, 534, 534, 534, 534, 534, 535, 535, 535, 535, 535, 536, 536, 536, 536, 536, 537, 538, 537, 537, 537, 537, 537, 537, 537, 538, 538, 538, 539, 540, 540, 540, 540, 541, 541, 541, 541, 541, 541, 541, 541, 541, 541, 541, 541, 541, 542, 542, 544, 544, 544, 544, 545, 545, 545, 545, 546, 547, 547, 547, 547, 547, 547, 548, 548, 548, 548, 548, 548, 548, 548, 548, 548, 548, 549, 549, 550, 550, 550, 551, 551, 551, 552, 553, 553, 0, 0, 0, 0, 553, 553, 0, 0, 555, 555, 555, 554, 554, 555, 555, 555, 555, 0, 0, 0, 0, 0, 0, 0, 0, 0, 0, 0, 0, 0, 0, 0, 0, 0, 0, 0, 0, 0, 0, 0, 0, 0, 0, 0, 0, 0, 0, 0, 0, 0, 0, 0, 0, 0, 0, 0, 0, 0, 0, 0, 0, 0, 0, 0, 0, 0, 0, 0, 0, 0, 0, 0, 0, 0, 0, 0, 0, 0, 0, 0, 0, 0, 0, 0, 0, 0, 0, 0, 0, 0, 0, 0, 0, 0, 0, 0, 0, 0, 0, 0, 0, 0, 0, 0, 0, 0, 0, 0, 0, 0, 0, 0, 0, 0, 0, 0, 0, 0, 0, 0, 0, 0, 0, 0, 0, 0, 0, 0, 0, 0, 0, 0, 0, 0, 0, 0, 0, 0, 0, 0, 0, 0, 0, 0, 0, 0, 0, 0, 0, 0, 0, 0, 0, 0, 0, 0, 0, 0, 0, 0, 0, 0, 0, 0, 0, 0, 0, 0, 0, 0, 0, 0, 0, 0, 0, 0, 0, 0, 0, 0, 0, 0, 0, 0, 0, 0, 0, 0, 0, 0, 0, 0, 0, 0, 0, 0, 0, 0, 0, 0, 0, 0, 0, 0, 0, 0, 0, 0, 0, 0, 0, 0, 0, 0, 0, 0, 0, 0, 0, 0, 0, 0, 0, 0, 0, 0, 0, 0,
       0, 0, 0, 0, 0, 0, 0, 0, 0, 0, 0, 0, 0, 0, 0, 0, 0, 0, 0, 0, 0, 0, 0, 0, 0, 0, 0, 0, 0, 0, 0, 0, 0, 0, 0, 0, 0, 0, 0, 0, 0, 0, 0, 0, 0, 0, 0, 0, 0, 0, 0, 0, 0, 0, 0, 0, 0, 0, 0, 0, 0, 0, 0, 0, 0, 0, 0, 0, 0, 0, 0, 0, 0, 0, 0, 0, 0, 0, 0, 0, 0, 0, 0, 0, 0, 0, 0, 0, 0, 0, 0, 0, 0, 0, 0, 0, 0, 0, 0, 0, 0, 0, 0, 0, 0, 0, 0, 0, 0, 0, 0, 0, 0, 0, 0, 0, 0, 0, 0, 0, 0, 0, 0, 0, 0, 0, 0, 0, 520, 520, 521, 521, 520, 520, 520, 520, 520, 520, 520, 520, 520, 520, 520, 520, 520, 521, 521, 521, 521, 521, 521, 521, 520, 520, 520, 520, 520, 520, 520, 520, 522, 522, 523, 523, 523, 523, 523, 523, 523, 523, 523, 523, 523, 522, 522, 522, 522, 522, 522, 522, 523, 523, 523, 523, 523, 523, 523, 523, 523, 523, 523, 523, 523, 523, 523, 523, 523, 523, 523, 523, 523, 523, 523, 523, 523, 524, 524, 524, 525, 524, 524, 525, 524, 524, 525, 525, 525, 525, 525, 525, 525, 525, 525, 525, 525, 525, 525, 525, 526, 526, 526, 525, 525, 525, 525, 525, 525, 525, 525, 525, 526, 527, 527, 527, 527, 527, 527, 527, 527, 527, 527, 527, 527, 528, 528, 528, 528, 528, 528, 528, 528, 528, 528, 528, 528, 528, 528, 528, 528, 528, 528, 528, 528, 528, 528, 528, 528, 528, 528, 528, 528, 528, 528, 528, 528, 529, 529, 529, 528, 528, 528, 529, 529, 529, 529, 529, 528, 528, 528, 529, 529, 529, 529, 529, 530, 530, 531, 531, 531, 531, 531, 531, 531, 531, 531, 531, 531, 531, 531, 531, 531, 531, 532, 532, 532, 533, 533, 533, 534, 534, 534, 534, 534, 534, 533, 533, 534, 534, 535, 535, 536, 536, 536, 536, 537, 537, 537, 537, 537, 537, 537, 537, 537, 537, 538, 538, 539, 539, 539, 539, 539, 540, 539, 539, 539, 539, 540, 540, 541, 541, 541, 541, 541, 541, 541, 542, 542, 542, 542, 543, 544, 544, 544, 544, 545, 545, 546, 547, 547, 547, 547, 547, 547, 548, 548, 548, 548, 548, 548, 548, 548, 549, 549, 549, 549, 550, 550, 550, 550, 551, 552, 552, 552, 552, 552, 553, 553, 553, 553, 553, 553, 554, 555, 555, 555, 555, 555, 555, 555, 0, 0, 554, 554, 554, 554, 554, 0, 0, 0, 0, 0, 0, 0, 0, 0, 0, 0, 0, 0, 0, 0, 0, 0, 0, 0, 0, 0, 0, 0, 0, 0, 0, 0, 0, 0, 0, 0, 0, 0, 0, 0, 0, 0, 0, 0, 0, 0, 0, 0, 0, 0, 0, 0, 0, 0, 0, 0, 0, 0, 0, 0, 0, 0, 0, 0, 0, 0, 0, 0, 0, 0, 0, 0, 0, 0, 0, 0, 0, 0, 0, 0, 0, 0, 0, 0, 0, 0, 0, 0, 0, 0, 0, 0, 0, 0, 0, 0, 0, 0, 0, 0, 0, 0, 0, 0, 0, 0, 0, 0, 0, 0, 0, 0, 0, 0, 0, 0, 0, 0, 0, 0, 0, 0, 0, 0, 0, 0, 0, 0, 0, 0, 0, 0, 0, 0, 0, 0, 0, 0, 0, 0, 0, 0, 0, 0, 0, 0, 0, 0, 0, 0, 0, 0, 0, 0, 0, 0, 0, 0, 0, 0, 0, 0, 0, 0, 0, 0, 0, 0, 0, 0, 0, 0, 0, 0, 0, 0, 0, 0, 0, 0, 0, 0, 0, 0, 0, 0, 0, 0, 0, 0, 0, 0, 0, 0, 0, 0, 0, 0, 0, 0, 0, 0, 0, 0, 0, 0, 0, 0, 0,
       0, 0, 0, 0, 0, 0, 0, 0, 0, 0, 0, 0, 0, 0, 0, 0, 0, 0, 0, 0, 0, 0, 0, 0, 0, 0, 0, 0, 0, 0, 0, 0, 0, 0, 0, 0, 0, 0, 0, 0, 0, 0, 0, 0, 0, 0, 0, 0, 0, 0, 0, 0, 0, 0, 0, 0, 0, 0, 0, 0, 0, 0, 0, 0, 0, 0, 0, 0, 0, 0, 0, 0, 0, 0, 0, 0, 0, 0, 0, 0, 0, 0, 0, 0, 0, 0, 0, 0, 0, 0, 0, 0, 0, 0, 0, 0, 0, 0, 0, 0, 0, 0, 0, 0, 0, 0, 0, 0, 0, 0, 0, 0, 0, 0, 0, 0, 0, 0, 0, 0, 0, 0, 0, 0, 0, 0, 0, 520, 520, 520, 520, 520, 520, 519, 519, 520, 520, 520, 520, 520, 520, 520, 520, 520, 520, 520, 521, 521, 521, 521, 520, 520, 520, 520, 520, 520, 520, 520, 520, 520, 521, 522, 522, 523, 523, 523, 523, 523, 523, 523, 523, 522, 522, 522, 522, 522, 522, 522, 522, 522, 522, 522, 522, 522, 522, 522, 522, 522, 523, 523, 523, 523, 523, 523, 523, 523, 522, 522, 522, 523, 523, 523, 523, 523, 523, 523, 523, 523, 524, 524, 524, 524, 524, 524, 525, 525, 525, 525, 525, 525, 525, 525, 524, 524, 524, 525, 525, 525, 525, 525, 525, 525, 525, 525, 525, 525, 525, 525, 525, 525, 526, 526, 526, 526, 526, 526, 526, 526, 526, 526, 526, 527, 527, 528, 528, 528, 528, 527, 527, 527, 527, 527, 527, 527, 527, 527, 527, 527, 527, 527, 528, 528, 527, 527, 527, 527, 527, 527, 527, 527, 527, 527, 528, 528, 528, 528, 528, 528, 528, 528, 528, 528, 528, 528, 528, 528, 528, 528, 528, 529, 529, 529, 529, 529, 529, 529, 530, 530, 531, 531, 531, 531, 531, 531, 531, 531, 531, 531, 531, 531, 531, 531, 531, 531, 531, 532, 532, 533, 533, 533, 533, 533, 533, 533, 533, 533, 533, 534, 534, 535, 535, 535, 536, 536, 536, 536, 536, 536, 536, 536, 536, 536, 536, 537, 537, 537, 538, 538, 538, 538, 538, 538, 538, 538, 538, 538, 539, 539, 540, 540, 540, 541, 541, 541, 541, 541, 541, 541, 541, 542, 542, 542, 542, 542, 544, 544, 544, 544, 545, 545, 546, 545, 545, 546, 547, 547, 547, 547, 547, 548, 548, 549, 549, 549, 549, 549, 549, 549, 549, 550, 550, 550, 550, 551, 551, 551, 551, 552, 552, 552, 552, 553, 553, 554, 554, 554, 554, 554, 553, 553, 553, 554, 554, 554, 554, 0, 0, 0, 0, 0, 0, 0, 0, 0, 0, 0, 0, 0, 0, 0, 0, 0, 0, 0, 0, 0, 0, 0, 0, 0, 0, 0, 0, 0, 0, 0, 0, 0, 0, 0, 0, 0, 0, 0, 0, 0, 0, 0, 0, 0, 0, 0, 0, 0, 0, 0, 0, 0, 0, 0, 0, 0, 0, 0, 0, 0, 0, 0, 0, 0, 0, 0, 0, 0, 0, 0, 0, 0, 0, 0, 0, 0, 0, 0, 0, 0, 0, 0, 0, 0, 0, 0, 0, 0, 0, 0, 0, 0, 0, 0, 0, 0, 0, 0, 0, 0, 0, 0, 0, 0, 0, 0, 0, 0, 0, 0, 0, 0, 0, 0, 0, 0, 0, 0, 0, 0, 0, 0, 0, 0, 0, 0, 0, 0, 0, 0, 0, 0, 0, 0, 0, 0, 0, 0, 0, 0, 0, 0, 0, 0, 0, 0, 0, 0, 0, 0, 0, 0, 0, 0, 0, 0, 0, 0, 0, 0, 0, 0, 0, 0, 0, 0, 0, 0, 0, 0, 0, 0, 0, 0, 0, 0, 0, 0, 0, 0, 0, 0, 0, 0, 0, 0, 0, 0, 0, 0, 0, 0, 0, 0, 0, 0, 0, 0, 0, 0, 0, 0, 0, 0,
       0, 0, 0, 0, 0, 0, 0, 0, 0, 0, 0, 0, 0, 0, 0, 0, 0, 0, 0, 0, 0, 0, 0, 0, 0, 0, 0, 0, 0, 0, 0, 0, 0, 0, 0, 0, 0, 0, 0, 0, 0, 0, 0, 0, 0, 0, 0, 0, 0, 0, 0, 0, 0, 0, 0, 0, 0, 0, 0, 0, 0, 0, 0, 0, 0, 0, 0, 0, 0, 0, 0, 0, 0, 0, 0, 0, 0, 0, 0, 0, 0, 0, 0, 0, 0, 0, 0, 0, 0, 0, 0, 0, 0, 0, 0, 0, 0, 0, 0, 0, 0, 0, 0, 0, 0, 0, 0, 0, 0, 0, 0, 0, 0, 0, 0, 0, 0, 0, 0, 0, 0, 0, 0, 0, 0, 0, 0, 520, 520, 520, 519, 519, 519, 519, 519, 519, 520, 520, 520, 520, 519, 519, 520, 520, 520, 520, 520, 520, 521, 520, 520, 520, 520, 520, 520, 520, 520, 520, 520, 521, 521, 521, 522, 522, 522, 523, 523, 523, 522, 522, 522, 521, 521, 522, 522, 522, 522, 522, 522, 522, 522, 522, 522, 522, 522, 522, 522, 522, 522, 522, 522, 522, 522, 522, 523, 522, 522, 522, 522, 522, 522, 523, 523, 523, 523, 523, 523, 523, 524, 524, 524, 524, 524, 524, 524, 524, 525, 525, 525, 524, 524, 524, 524, 524, 524, 524, 525, 525, 525, 525, 525, 525, 525, 524, 524, 524, 524, 524, 524, 525, 525, 525, 525, 526, 526, 526, 526, 526, 526, 526, 526, 527, 527, 527, 528, 528, 528, 527, 527, 527, 527, 527, 527, 527, 527, 527, 527, 527, 527, 527, 527, 527, 527, 527, 527, 527, 527, 527, 527, 527, 527, 527, 527, 528, 528, 528, 528, 528, 528, 528, 528, 528, 528, 528, 528, 528, 528, 528, 528, 528, 528, 528, 529, 529, 529, 529, 529, 529, 530, 530, 530, 530, 530, 530, 530, 530, 530, 530, 530, 530, 530, 530, 531, 531, 531, 531, 532, 532, 533, 533, 533, 533, 533, 532, 532, 532, 532, 533, 533, 534, 534, 535, 535, 535, 536, 536, 536, 536, 536, 536, 536, 536, 536, 536, 537, 537, 537, 538, 538, 538, 538, 538, 537, 537, 537, 537, 538, 539, 539, 540, 540, 540, 541, 541, 541, 541, 541, 541, 541, 541, 541, 541, 541, 541, 541, 542, 541, 541, 541, 543, 543, 544, 544, 544, 545, 545, 546, 546, 547, 547, 547, 548, 548, 548, 548, 548, 549, 549, 549, 549, 549, 549, 549, 550, 550, 550, 550, 550, 551, 551, 552, 552, 553, 553, 553, 553, 553, 553, 552, 552, 552, 552, 553, 553, 552, 552, 0, 0, 555, 555, 0, 0, 0, 0, 0, 0, 0, 0, 0, 0, 0, 0, 0, 0, 0, 0, 0, 0, 0, 0, 0, 0, 0, 0, 0, 0, 0, 0, 0, 0, 0, 0, 0, 0, 0, 0, 0, 0, 0, 0, 0, 0, 0, 0, 0, 0, 0, 0, 0, 0, 0, 0, 0, 0, 0, 0, 0, 0, 0, 0, 0, 0, 0, 0, 0, 0, 0, 0, 0, 0, 0, 0, 0, 0, 0, 0, 0, 0, 0, 0, 0, 0, 0, 0, 0, 0, 0, 0, 0, 0, 0, 0, 0, 0, 0, 0, 0, 0, 0, 0, 0, 0, 0, 0, 0, 0, 0, 0, 0, 0, 0, 0, 0, 0, 0, 0, 0, 0, 0, 0, 0, 0, 0, 0, 0, 0, 0, 0, 0, 0, 0, 0, 0, 0, 0, 0, 0, 0, 0, 0, 0, 0, 0, 0, 0, 0, 0, 0, 0, 0, 0, 0, 0, 0, 0, 0, 0, 0, 0, 0, 0, 0, 0, 0, 0, 0, 0, 0, 0, 0, 0, 0, 0, 0, 0, 0, 0, 0, 0, 0, 0, 0, 0, 0, 0, 0, 0, 0, 0, 0, 0, 0, 0, 0, 0, 0, 0, 0, 0, 0,
       0, 0, 0, 0, 0, 0, 0, 0, 0, 0, 0, 0, 0, 0, 0, 0, 0, 0, 0, 0, 0, 0, 0, 0, 0, 0, 0, 0, 0, 0, 0, 0, 0, 0, 0, 0, 0, 0, 0, 0, 0, 0, 0, 0, 0, 0, 0, 0, 0, 0, 0, 0, 0, 0, 0, 0, 0, 0, 0, 0, 0, 0, 0, 0, 0, 0, 0, 0, 0, 0, 0, 0, 0, 0, 0, 0, 0, 0, 0, 0, 0, 0, 0, 0, 0, 0, 0, 0, 0, 0, 0, 0, 0, 0, 0, 0, 0, 0, 0, 0, 0, 0, 0, 0, 0, 0, 0, 0, 0, 0, 0, 0, 0, 0, 0, 0, 0, 0, 0, 0, 0, 0, 0, 0, 0, 0, 519, 519, 519, 519, 519, 519, 519, 519, 519, 519, 519, 519, 519, 519, 519, 519, 519, 520, 520, 520, 520, 520, 521, 520, 520, 520, 520, 520, 520, 520, 520, 520, 520, 520, 520, 521, 521, 521, 522, 522, 522, 522, 522, 521, 521, 521, 521, 521, 521, 521, 521, 521, 522, 522, 522, 521, 521, 521, 521, 521, 521, 521, 521, 522, 521, 521, 522, 522, 522, 522, 522, 522, 522, 522, 522, 523, 523, 523, 523, 523, 523, 523, 524, 524, 524, 524, 524, 524, 524, 524, 524, 524, 524, 524, 524, 524, 524, 524, 524, 524, 524, 525, 525, 525, 525, 525, 525, 524, 524, 524, 524, 524, 524, 524, 524, 524, 525, 525, 525, 525, 525, 526, 526, 526, 526, 527, 527, 527, 528, 528, 527, 527, 527, 527, 527, 527, 527, 527, 527, 527, 527, 527, 527, 527, 527, 527, 527, 527, 527, 527, 527, 527, 527, 527, 527, 527, 527, 527, 527, 528, 528, 528, 528, 528, 528, 528, 528, 528, 528, 528, 528, 528, 528, 528, 528, 528, 528, 529, 529, 529, 529, 529, 530, 530, 530, 530, 530, 530, 530, 530, 530, 530, 530, 530, 530, 530, 531, 531, 531, 531, 532, 532, 532, 532, 532, 532, 532, 532, 532, 532, 532, 532, 533, 533, 533, 533, 533, 534, 535, 536, 536, 536, 536, 536, 536, 536, 536, 536, 536, 536, 537, 537, 537, 537, 537, 537, 537, 537, 537, 537, 537, 538, 538, 539, 539, 539, 540, 540, 540, 540, 540, 540, 540, 541, 541, 541, 541, 541, 541, 541, 541, 541, 541, 541, 542, 543, 543, 543, 544, 544, 545, 545, 545, 546, 547, 547, 547, 547, 547, 547, 548, 548, 548, 548, 548, 549, 549, 549, 549, 549, 549, 550, 551, 551, 551, 552, 552, 552, 552, 553, 553, 552, 552, 552, 552, 552, 552, 553, 552, 552, 554, 555, 555, 555, 0, 0, 0, 0, 0, 0, 0, 557, 557, 0, 0, 0, 0, 559, 559, 559, 559, 0, 0, 0, 0, 0, 0, 0, 0, 0, 0, 0, 0, 0, 0, 0, 0, 0, 0, 0, 0, 0, 0, 0, 0, 0, 0, 0, 0, 0, 0, 0, 0, 0, 0, 0, 0, 0, 0, 0, 0, 0, 0, 0, 0, 0, 0, 0, 0, 0, 0, 0, 0, 0, 0, 0, 0, 0, 0, 0, 0, 0, 0, 0, 0, 0, 0, 0, 0, 0, 0, 0, 0, 0, 0, 0, 0, 0, 0, 0, 0, 0, 0, 0, 0, 0, 0, 0, 0, 0, 0, 0, 0, 0, 0, 0, 0, 0, 0, 0, 0, 0, 0, 0, 0, 0, 0, 0, 0, 0, 0, 0, 0, 0, 0, 0, 0, 0, 0, 0, 0, 0, 0, 0, 0, 0, 0, 0, 0, 0, 0, 0, 0, 0, 0, 0, 0, 0, 0, 0, 0, 0, 0, 0, 0, 0, 0, 0, 0, 0, 0, 0, 0, 0, 0, 0, 0, 0, 0, 0, 0, 0, 0, 0, 0, 0, 0, 0, 0, 0, 0, 0, 0, 0, 0, 0, 0, 0, 0, 0, 0, 0, 0, 0,
       0, 0, 0, 0, 0, 0, 0, 0, 0, 0, 0, 0, 0, 0, 0, 0, 0, 0, 0, 0, 0, 0, 0, 0, 0, 0, 0, 0, 0, 0, 0, 0, 0, 0, 0, 0, 0, 0, 0, 0, 0, 0, 0, 0, 0, 0, 0, 0, 0, 0, 0, 0, 0, 0, 0, 0, 0, 0, 0, 0, 0, 0, 0, 0, 0, 0, 0, 0, 0, 0, 0, 0, 0, 0, 0, 0, 0, 0, 0, 0, 0, 0, 0, 0, 0, 0, 0, 0, 0, 0, 0, 0, 0, 0, 0, 0, 0, 0, 0, 0, 0, 0, 0, 0, 0, 0, 0, 0, 0, 0, 0, 0, 0, 0, 0, 0, 0, 0, 0, 0, 0, 0, 0, 0, 0, 0, 519, 519, 519, 519, 519, 519, 519, 519, 519, 519, 519, 519, 519, 519, 519, 519, 519, 520, 520, 520, 520, 520, 521, 520, 520, 520, 520, 520, 520, 520, 520, 520, 520, 520, 520, 520, 521, 521, 521, 521, 522, 522, 522, 521, 521, 521, 521, 521, 521, 521, 521, 521, 521, 521, 521, 521, 521, 521, 521, 521, 521, 521, 521, 521, 521, 521, 521, 521, 521, 521, 521, 521, 521, 522, 522, 522, 523, 523, 523, 523, 523, 523, 523, 523, 524, 524, 524, 524, 524, 524, 524, 524, 524, 524, 524, 524, 524, 524, 524, 524, 524, 524, 525, 525, 525, 525, 525, 525, 524, 524, 524, 524, 524, 524, 524, 524, 525, 525, 525, 525, 525, 525, 525, 525, 526, 526, 527, 527, 527, 527, 527, 527, 527, 527, 527, 527, 527, 527, 527, 527, 527, 527, 527, 527, 527, 527, 527, 527, 527, 527, 527, 527, 527, 527, 527, 527, 527, 527, 527, 528, 528, 528, 528, 528, 528, 528, 528, 528, 528, 527, 527, 527, 527, 528, 528, 528, 528, 528, 528, 528, 529, 529, 529, 529, 529, 529, 530, 529, 529, 529, 529, 529, 529, 530, 530, 530, 530, 530, 531, 531, 531, 532, 532, 532, 532, 532, 532, 532, 532, 532, 532, 532, 532, 533, 533, 533, 533, 533, 535, 535, 535, 535, 535, 536, 536, 536, 536, 536, 536, 536, 536, 537, 537, 537, 537, 537, 537, 537, 537, 537, 537, 537, 538, 538, 538, 538, 538, 538, 538, 539, 539, 539, 540, 540, 540, 540, 540, 540, 540, 541, 541, 541, 541, 541, 542, 542, 542, 542, 542, 543, 543, 544, 545, 545, 545, 545, 545, 546, 546, 547, 547, 547, 547, 547, 548, 548, 548, 548, 548, 548, 549, 549, 550, 551, 551, 551, 551, 551, 551, 552, 552, 551, 551, 551, 551, 551, 552, 552, 551, 551, 553, 554, 554, 553, 553, 553, 0, 0, 558, 558, 557, 557, 557, 557, 557, 557, 557, 558, 558, 558, 558, 0, 0, 0, 0, 0, 0, 0, 0, 0, 0, 0, 0, 0, 0, 0, 0, 0, 0, 0, 0, 0, 0, 0, 0, 0, 0, 0, 0, 0, 0, 0, 0, 0, 0, 0, 0, 0, 0, 0, 0, 0, 0, 0, 0, 0, 0, 0, 0, 0, 0, 0, 0, 0, 0, 0, 0, 0, 0, 0, 0, 0, 0, 0, 0, 0, 0, 0, 0, 0, 0, 0, 0, 0, 0, 0, 0, 0, 0, 0, 0, 0, 0, 0, 0, 0, 0, 0, 0, 0, 0, 0, 0, 0, 0, 0, 0, 0, 0, 0, 0, 0, 0, 0, 0, 0, 0, 0, 0, 0, 0, 0, 0, 0, 0, 0, 0, 0, 0, 0, 0, 0, 0, 0, 0, 0, 0, 0, 0, 0, 0, 0, 0, 0, 0, 0, 0, 0, 0, 0, 0, 0, 0, 0, 0, 0, 0, 0, 0, 0, 0, 0, 0, 0, 0, 0, 0, 0, 0, 0, 0, 0, 0, 0, 0, 0, 0, 0, 0, 0, 0, 0, 0, 0, 0, 0, 0, 0, 0, 0, 0, 0, 0, 0,
       0, 0, 0, 0, 0, 0, 0, 0, 0, 0, 0, 0, 0, 0, 0, 0, 0, 0, 0, 0, 0, 0, 0, 0, 0, 0, 0, 0, 0, 0, 0, 0, 0, 0, 0, 0, 0, 0, 0, 0, 0, 0, 0, 0, 0, 0, 0, 0, 0, 0, 0, 0, 0, 0, 0, 0, 0, 0, 0, 0, 0, 0, 0, 0, 0, 0, 0, 0, 0, 0, 0, 0, 0, 0, 0, 0, 0, 0, 0, 0, 0, 0, 0, 0, 0, 0, 0, 0, 0, 0, 0, 0, 0, 0, 0, 0, 0, 0, 0, 0, 0, 0, 0, 0, 0, 0, 0, 0, 0, 0, 0, 0, 0, 0, 0, 0, 0, 0, 0, 0, 0, 0, 0, 0, 0, 0, 519, 519, 519, 519, 519, 519, 519, 519, 519, 519, 519, 519, 519, 519, 519, 519, 519, 520, 520, 520, 520, 520, 520, 520, 520, 520, 519, 519, 520, 519, 519, 519, 519, 520, 520, 520, 521, 521, 521, 521, 521, 521, 521, 521, 521, 521, 521, 521, 521, 521, 521, 521, 521, 521, 521, 521, 521, 521, 521, 521, 521, 521, 521, 521, 521, 521, 521, 521, 521, 521, 521, 521, 521, 522, 522, 522, 523, 523, 523, 523, 523, 523, 523, 523, 523, 524, 524, 524, 524, 524, 524, 524, 524, 524, 524, 524, 524, 524, 524, 524, 524, 524, 525, 525, 525, 525, 525, 525, 525, 525, 525, 525, 525, 525, 525, 525, 525, 525, 525, 525, 525, 525, 525, 525, 525, 526, 526, 527, 527, 527, 527, 527, 527, 527, 527, 527, 527, 527, 527, 527, 527, 527, 526, 526, 527, 527, 527, 527, 527, 527, 527, 527, 527, 527, 527, 527, 527, 527, 527, 527, 527, 528, 528, 528, 528, 528, 528, 528, 527, 527, 527, 527, 527, 528, 527, 527, 528, 528, 528, 528, 528, 529, 529, 529, 529, 529, 529, 529, 529, 529, 529, 529, 529, 530, 530, 530, 530, 530, 530, 530, 531, 531, 531, 532, 532, 532, 532, 532, 532, 532, 532, 532, 532, 532, 532, 533, 533, 533, 534, 534, 535, 535, 535, 535, 535, 536, 536, 536, 536, 536, 536, 536, 536, 536, 536, 536, 537, 537, 537, 537, 537, 537, 537, 537, 537, 537, 538, 538, 538, 538, 538, 538, 539, 539, 539, 539, 539, 540, 540, 541, 541, 541, 541, 541, 542, 542, 542, 542, 542, 542, 542, 542, 542, 542, 542, 543, 544, 545, 545, 546, 546, 547, 547, 547, 547, 547, 547, 547, 547, 547, 548, 548, 548, 549, 549, 549, 550, 550, 550, 550, 550, 550, 550, 550, 550, 550, 550, 551, 551, 551, 553, 553, 553, 553, 553, 553, 553, 0, 556, 556, 555, 555, 556, 556, 556, 556, 556, 557, 557, 557, 558, 0, 0, 0, 0, 0, 0, 0, 0, 0, 0, 0, 0, 0, 0, 0, 0, 0, 0, 0, 0, 0, 0, 0, 0, 0, 0, 0, 0, 0, 0, 0, 0, 0, 0, 0, 0, 0, 0, 0, 0, 0, 0, 0, 0, 0, 0, 0, 0, 0, 0, 0, 0, 0, 0, 0, 0, 0, 0, 0, 0, 0, 0, 0, 0, 0, 0, 0, 0, 0, 0, 0, 0, 0, 0, 0, 0, 0, 0, 0, 0, 0, 0, 0, 0, 0, 0, 0, 0, 0, 0, 0, 0, 0, 0, 0, 0, 0, 0, 0, 0, 0, 0, 0, 0, 0, 0, 0, 0, 0, 0, 0, 0, 0, 0, 0, 0, 0, 0, 0, 0, 0, 0, 0, 0, 0, 0, 0, 0, 0, 0, 0, 0, 0, 0, 0, 0, 0, 0, 0, 0, 0, 0, 0, 0, 0, 0, 0, 0, 0, 0, 0, 0, 0, 0, 0, 0, 0, 0, 0, 0, 0, 0, 0, 0, 0, 0, 0, 0, 0, 0, 0, 0, 0, 0, 0, 0, 0, 0, 0, 0, 0, 0, 0,
       0, 0, 0, 0, 0, 0, 0, 0, 0, 0, 0, 0, 0, 0, 0, 0, 0, 0, 0, 0, 0, 0, 0, 0, 0, 0, 0, 0, 0, 0, 0, 0, 0, 0, 0, 0, 0, 0, 0, 0, 0, 0, 0, 0, 0, 0, 0, 0, 0, 0, 0, 0, 0, 0, 0, 0, 0, 0, 0, 0, 0, 0, 0, 0, 0, 0, 0, 0, 0, 0, 0, 0, 0, 0, 0, 0, 0, 0, 0, 0, 0, 0, 0, 0, 0, 0, 0, 0, 0, 0, 0, 0, 0, 0, 0, 0, 0, 0, 0, 0, 0, 0, 0, 0, 0, 0, 0, 0, 0, 0, 0, 0, 0, 0, 0, 0, 0, 0, 0, 0, 0, 0, 0, 0, 0, 520, 519, 519, 519, 519, 519, 519, 519, 519, 519, 519, 519, 519, 519, 519, 519, 519, 519, 519, 519, 519, 519, 519, 520, 520, 519, 519, 519, 519, 519, 519, 519, 519, 519, 520, 520, 520, 521, 521, 521, 521, 521, 521, 521, 521, 521, 521, 521, 521, 521, 521, 521, 521, 521, 521, 521, 521, 521, 521, 521, 521, 521, 521, 521, 521, 521, 521, 521, 521, 521, 522, 522, 522, 522, 522, 522, 523, 523, 523, 523, 523, 523, 523, 523, 523, 523, 524, 524, 524, 524, 524, 524, 524, 524, 524, 524, 524, 524, 524, 524, 524, 524, 524, 525, 525, 525, 525, 525, 525, 525, 525, 525, 525, 524, 524, 524, 524, 524, 525, 525, 525, 525, 525, 525, 525, 525, 526, 526, 527, 527, 527, 527, 526, 526, 527, 527, 527, 527, 527, 527, 527, 527, 527, 526, 526, 527, 527, 527, 527, 527, 527, 527, 527, 527, 528, 528, 527, 527, 527, 527, 527, 527, 528, 528, 528, 528, 528, 528, 528, 527, 527, 527, 527, 527, 528, 527, 527, 528, 528, 528, 528, 528, 529, 529, 529, 529, 529, 529, 529, 529, 529, 529, 529, 529, 529, 530, 530, 530, 530, 530, 530, 531, 531, 531, 531, 531, 531, 531, 531, 531, 531, 531, 531, 532, 532, 532, 532, 532, 533, 534, 534, 534, 534, 534, 534, 535, 535, 535, 536, 536, 536, 536, 536, 536, 536, 536, 536, 536, 536, 536, 536, 537, 537, 537, 537, 537, 537, 537, 537, 537, 537, 537, 538, 538, 538, 539, 539, 539, 539, 540, 540, 540, 540, 541, 541, 541, 541, 541, 541, 541, 542, 542, 542, 542, 542, 542, 542, 543, 544, 544, 544, 545, 545, 545, 546, 546, 546, 546, 547, 547, 547, 547, 547, 547, 548, 548, 548, 548, 548, 548, 549, 549, 549, 549, 549, 549, 549, 549, 550, 550, 550, 552, 552, 552, 552, 552, 552, 552, 553, 553, 554, 554, 554, 555, 555, 555, 555, 555, 556, 556, 556, 557, 557, 0, 0, 0, 0, 0, 0, 0, 0, 0, 0, 0, 0, 0, 0, 0, 0, 0, 0, 0, 0, 0, 0, 0, 0, 0, 0, 0, 0, 0, 0, 0, 0, 0, 0, 0, 0, 0, 0, 0, 0, 0, 0, 0, 0, 0, 0, 0, 0, 0, 0, 0, 0, 0, 0, 0, 0, 0, 0, 0, 0, 0, 0, 0, 0, 0, 0, 0, 0, 0, 0, 0, 0, 0, 0, 0, 0, 0, 0, 0, 0, 0, 0, 0, 0, 0, 0, 0, 0, 0, 0, 0, 0, 0, 0, 0, 0, 0, 0, 0, 0, 0, 0, 0, 0, 0, 0, 0, 0, 0, 0, 0, 0, 0, 0, 0, 0, 0, 0, 0, 0, 0, 0, 0, 0, 0, 0, 0, 0, 0, 0, 0, 0, 0, 0, 0, 0, 0, 0, 0, 0, 0, 0, 0, 0, 0, 0, 0, 0, 0, 0, 0, 0, 0, 0, 0, 0, 0, 0, 0, 0, 0, 0, 0, 0, 0, 0, 0, 0, 0, 0, 0, 0, 0, 0, 0, 0, 0, 0, 0, 0, 0, 0,
       0, 0, 0, 0, 0, 0, 0, 0, 0, 0, 0, 0, 0, 0, 0, 0, 0, 0, 0, 0, 0, 0, 0, 0, 0, 0, 0, 0, 0, 0, 0, 0, 0, 0, 0, 0, 0, 0, 0, 0, 0, 0, 0, 0, 0, 0, 0, 0, 0, 0, 0, 0, 0, 0, 0, 0, 0, 0, 0, 0, 0, 0, 0, 0, 0, 0, 0, 0, 0, 0, 0, 0, 0, 0, 0, 0, 0, 0, 0, 0, 0, 0, 0, 0, 0, 0, 0, 0, 0, 0, 0, 0, 0, 0, 0, 0, 0, 0, 0, 0, 0, 0, 0, 0, 0, 0, 0, 0, 0, 0, 0, 0, 0, 0, 0, 0, 0, 0, 0, 0, 0, 0, 0, 0, 0, 520, 519, 519, 519, 519, 519, 519, 519, 519, 519, 519, 519, 519, 519, 519, 519, 519, 519, 519, 519, 519, 519, 519, 519, 519, 519, 519, 519, 519, 519, 519, 519, 519, 519, 520, 520, 520, 521, 521, 521, 521, 521, 521, 521, 521, 521, 521, 521, 521, 521, 521, 521, 521, 521, 521, 521, 521, 521, 521, 521, 521, 521, 521, 521, 521, 521, 521, 521, 521, 522, 522, 522, 522, 522, 522, 522, 523, 523, 523, 523, 523, 523, 523, 523, 523, 523, 524, 524, 524, 524, 524, 524, 524, 524, 524, 524, 524, 524, 524, 524, 524, 524, 524, 525, 525, 525, 525, 525, 525, 525, 525, 525, 525, 524, 524, 524, 524, 524, 525, 525, 525, 525, 525, 525, 526, 526, 526, 526, 527, 527, 527, 527, 526, 526, 527, 526, 526, 526, 526, 526, 526, 526, 526, 526, 526, 527, 527, 527, 527, 527, 527, 527, 527, 527, 527, 527, 527, 527, 527, 527, 527, 527, 528, 528, 527, 527, 528, 528, 528, 527, 527, 527, 527, 527, 528, 528, 528, 528, 528, 528, 528, 528, 529, 529, 529, 529, 529, 529, 529, 529, 529, 529, 529, 529, 529, 530, 530, 530, 530, 530, 530, 531, 531, 531, 531, 531, 531, 531, 531, 531, 531, 531, 531, 532, 532, 532, 532, 532, 532, 534, 534, 534, 534, 534, 534, 534, 535, 535, 536, 536, 536, 536, 536, 536, 536, 536, 536, 536, 536, 536, 536, 536, 537, 537, 537, 537, 537, 537, 537, 537, 537, 537, 537, 537, 538, 538, 538, 538, 539, 539, 539, 540, 540, 540, 540, 541, 541, 541, 541, 541, 541, 541, 541, 541, 541, 542, 542, 542, 543, 543, 543, 544, 544, 544, 544, 544, 544, 545, 546, 546, 546, 546, 546, 547, 547, 547, 547, 547, 547, 548, 548, 548, 548, 548, 548, 548, 549, 549, 549, 549, 549, 551, 552, 552, 552, 552, 552, 552, 552, 552, 553, 553, 553, 554, 555, 555, 555, 555, 555, 555, 555, 555, 555, 556, 557, 556, 556, 0, 0, 0, 0, 0, 0, 0, 0, 0, 0, 0, 0, 0, 0, 0, 0, 0, 0, 0, 0, 0, 0, 0, 0, 0, 0, 0, 0, 0, 0, 0, 0, 0, 0, 0, 0, 0, 0, 0, 0, 0, 0, 0, 0, 0, 0, 0, 0, 0, 0, 0, 0, 0, 0, 0, 0, 0, 0, 0, 0, 0, 0, 0, 0, 0, 0, 0, 0, 0, 0, 0, 0, 0, 0, 0, 0, 0, 0, 0, 0, 0, 0, 0, 0, 0, 0, 0, 0, 0, 0, 0, 0, 0, 0, 0, 0, 0, 0, 0, 0, 0, 0, 0, 0, 0, 0, 0, 0, 0, 0, 0, 0, 0, 0, 0, 0, 0, 0, 0, 0, 0, 0, 0, 0, 0, 0, 0, 0, 0, 0, 0, 0, 0, 0, 0, 0, 0, 0, 0, 0, 0, 0, 0, 0, 0, 0, 0, 0, 0, 0, 0, 0, 0, 0, 0, 0, 0, 0, 0, 0, 0, 0, 0, 0, 0, 0, 0, 0, 0, 0, 0, 0, 0, 0, 0, 0, 0, 0,
       0, 0, 0, 0, 0, 0, 0, 0, 0, 0, 0, 0, 0, 0, 0, 0, 0, 0, 0, 0, 0, 0, 0, 0, 0, 0, 0, 0, 0, 0, 0, 0, 0, 0, 0, 0, 0, 0, 0, 0, 0, 0, 0, 0, 0, 0, 0, 0, 0, 0, 0, 0, 0, 0, 0, 0, 0, 0, 0, 0, 0, 0, 0, 0, 0, 0, 0, 0, 0, 0, 0, 0, 0, 0, 0, 0, 0, 0, 0, 0, 0, 0, 0, 0, 0, 0, 0, 0, 0, 0, 0, 0, 0, 0, 0, 0, 0, 0, 0, 0, 0, 0, 0, 0, 0, 0, 0, 0, 0, 0, 0, 0, 0, 0, 0, 0, 0, 0, 0, 0, 0, 0, 0, 0, 0, 520, 520, 519, 519, 519, 519, 519, 519, 519, 518, 518, 518, 519, 519, 519, 519, 519, 519, 519, 519, 519, 519, 519, 519, 519, 519, 519, 519, 519, 519, 519, 519, 519, 519, 519, 520, 520, 521, 521, 521, 521, 521, 521, 521, 521, 521, 521, 521, 521, 521, 521, 521, 521, 521, 521, 521, 521, 521, 521, 521, 521, 521, 521, 521, 521, 521, 521, 521, 521, 522, 522, 522, 522, 522, 522, 522, 523, 523, 523, 523, 523, 523, 523, 523, 523, 523, 524, 524, 524, 524, 524, 524, 524, 524, 524, 524, 524, 524, 524, 524, 524, 524, 524, 524, 525, 525, 525, 525, 525, 525, 525, 525, 525, 525, 525, 524, 524, 524, 525, 525, 525, 525, 526, 526, 526, 526, 526, 526, 527, 527, 527, 527, 526, 526, 527, 526, 526, 526, 526, 526, 526, 526, 526, 526, 526, 527, 527, 527, 527, 527, 527, 527, 527, 527, 527, 527, 527, 527, 527, 527, 527, 527, 528, 528, 527, 527, 527, 527, 528, 527, 527, 527, 527, 528, 528, 528, 528, 528, 528, 528, 529, 529, 529, 529, 529, 529, 529, 529, 529, 529, 529, 529, 529, 529, 529, 530, 530, 530, 530, 530, 530, 530, 530, 530, 531, 531, 531, 531, 531, 531, 531, 531, 531, 531, 532, 532, 532, 532, 532, 534, 534, 534, 534, 534, 534, 534, 534, 535, 535, 535, 536, 536, 536, 536, 536, 536, 536, 536, 536, 536, 536, 536, 536, 536, 536, 536, 536, 536, 536, 536, 537, 537, 537, 537, 537, 537, 538, 538, 538, 538, 539, 539, 539, 540, 540, 541, 541, 541, 541, 541, 541, 541, 541, 541, 541, 541, 541, 541, 542, 543, 543, 543, 543, 543, 544, 544, 544, 544, 544, 544, 545, 545, 546, 546, 547, 547, 547, 547, 547, 547, 547, 547, 547, 547, 547, 547, 548, 548, 548, 548, 549, 550, 550, 551, 551, 552, 552, 552, 552, 552, 552, 552, 552, 553, 553, 553, 553, 554, 554, 554, 554, 555, 555, 555, 555, 556, 556, 556, 556, 556, 0, 556, 556, 556, 0, 558, 558, 558, 559, 0, 0, 0, 0, 0, 0, 0, 0, 0, 0, 0, 0, 0, 0, 0, 0, 0, 0, 0, 0, 0, 0, 0, 0, 0, 0, 0, 0, 0, 0, 0, 0, 0, 0, 0, 0, 0, 0, 0, 0, 0, 0, 0, 0, 0, 0, 0, 0, 0, 0, 0, 0, 0, 0, 0, 0, 0, 0, 0, 0, 0, 0, 0, 0, 0, 0, 0, 0, 0, 0, 0, 0, 0, 0, 0, 0, 0, 0, 0, 0, 0, 0, 0, 0, 0, 0, 0, 0, 0, 0, 0, 0, 0, 0, 0, 0, 0, 0, 0, 0, 0, 0, 0, 0, 0, 0, 0, 0, 0, 0, 0, 0, 0, 0, 0, 0, 0, 0, 0, 0, 0, 0, 0, 0, 0, 0, 0, 0, 0, 0, 0, 0, 0, 0, 0, 0, 0, 0, 0, 0, 0, 0, 0, 0, 0, 0, 0, 0, 0, 0, 0, 0, 0, 0, 0, 0, 0, 0, 0, 0, 0, 0, 0, 0, 0, 0,
       0, 0, 0, 0, 0, 0, 0, 0, 0, 0, 0, 0, 0, 0, 0, 0, 0, 0, 0, 0, 0, 0, 0, 0, 0, 0, 0, 0, 0, 0, 0, 0, 0, 0, 0, 0, 0, 0, 0, 0, 0, 0, 0, 0, 0, 0, 0, 0, 0, 0, 0, 0, 0, 0, 0, 0, 0, 0, 0, 0, 0, 0, 0, 0, 0, 0, 0, 0, 0, 0, 0, 0, 0, 0, 0, 0, 0, 0, 0, 0, 0, 0, 0, 0, 0, 0, 0, 0, 0, 0, 0, 0, 0, 0, 0, 0, 0, 0, 0, 0, 0, 0, 0, 0, 0, 0, 0, 0, 0, 0, 0, 0, 0, 0, 0, 0, 0, 0, 0, 0, 0, 0, 0, 0, 0, 520, 519, 519, 519, 519, 519, 519, 519, 519, 518, 518, 518, 518, 518, 518, 519, 519, 519, 519, 519, 519, 519, 519, 519, 519, 519, 519, 519, 519, 519, 519, 519, 519, 519, 519, 519, 520, 521, 521, 521, 521, 521, 521, 521, 521, 521, 521, 521, 520, 520, 521, 521, 521, 521, 521, 521, 521, 521, 521, 521, 521, 521, 521, 521, 521, 522, 522, 522, 522, 522, 522, 522, 522, 522, 523, 523, 523, 523, 523, 523, 523, 523, 523, 523, 523, 523, 524, 524, 524, 524, 524, 524, 524, 524, 524, 524, 524, 524, 524, 524, 524, 524, 524, 524, 525, 525, 525, 525, 525, 525, 525, 525, 525, 525, 524, 524, 524, 524, 525, 525, 525, 526, 526, 526, 526, 526, 526, 526, 527, 527, 527, 527, 527, 527, 527, 527, 527, 526, 526, 526, 526, 526, 527, 527, 527, 527, 527, 527, 527, 527, 527, 527, 527, 527, 527, 527, 527, 527, 527, 527, 527, 527, 527, 527, 527, 527, 527, 527, 528, 528, 528, 528, 528, 528, 529, 529, 529, 529, 529, 529, 529, 529, 529, 529, 529, 529, 529, 529, 529, 529, 529, 529, 529, 529, 529, 530, 530, 530, 530, 530, 530, 530, 530, 530, 531, 531, 531, 531, 531, 531, 531, 531, 531, 531, 531, 531, 531, 531, 532, 533, 533, 534, 534, 534, 534, 534, 534, 534, 535, 535, 535, 536, 536, 536, 536, 536, 536, 536, 536, 536, 536, 536, 536, 536, 536, 536, 536, 536, 536, 536, 536, 537, 537, 537, 537, 537, 537, 537, 538, 538, 538, 538, 538, 539, 539, 541, 541, 541, 541, 541, 541, 541, 541, 541, 541, 541, 541, 541, 541, 542, 542, 542, 542, 542, 543, 543, 543, 543, 543, 544, 544, 544, 544, 544, 544, 545, 546, 546, 546, 547, 547, 547, 547, 547, 547, 547, 547, 547, 547, 547, 549, 549, 549, 550, 550, 550, 550, 550, 550, 550, 550, 551, 551, 552, 552, 552, 552, 553, 553, 553, 553, 554, 554, 555, 555, 555, 555, 555, 555, 555, 555, 555, 555, 555, 555, 556, 556, 556, 557, 558, 0, 0, 0, 0, 0, 0, 0, 0, 0, 0, 0, 0, 0, 0, 0, 0, 0, 0, 0, 0, 0, 0, 0, 0, 0, 0, 0, 0, 0, 0, 0, 0, 0, 0, 0, 0, 0, 0, 0, 0, 0, 0, 0, 0, 0, 0, 0, 0, 0, 0, 0, 0, 0, 0, 0, 0, 0, 0, 0, 0, 0, 0, 0, 0, 0, 0, 0, 0, 0, 0, 0, 0, 0, 0, 0, 0, 0, 0, 0, 0, 0, 0, 0, 0, 0, 0, 0, 0, 0, 0, 0, 0, 0, 0, 0, 0, 0, 0, 0, 0, 0, 0, 0, 0, 0, 0, 0, 0, 0, 0, 0, 0, 0, 0, 0, 0, 0, 0, 0, 0, 0, 0, 0, 0, 0, 0, 0, 0, 0, 0, 0, 0, 0, 0, 0, 0, 0, 0, 0, 0, 0, 0, 0, 0, 0, 0, 0, 0, 0, 0, 0, 0, 0, 0, 0, 0, 0, 0, 0, 0, 0, 0, 0, 0, 0,
       0, 0, 0, 0, 0, 0, 0, 0, 0, 0, 0, 0, 0, 0, 0, 0, 0, 0, 0, 0, 0, 0, 0, 0, 0, 0, 0, 0, 0, 0, 0, 0, 0, 0, 0, 0, 0, 0, 0, 0, 0, 0, 0, 0, 0, 0, 0, 0, 0, 0, 0, 0, 0, 0, 0, 0, 0, 0, 0, 0, 0, 0, 0, 0, 0, 0, 0, 0, 0, 0, 0, 0, 0, 0, 0, 0, 0, 0, 0, 0, 0, 0, 0, 0, 0, 0, 0, 0, 0, 0, 0, 0, 0, 0, 0, 0, 0, 0, 0, 0, 0, 0, 0, 0, 0, 0, 0, 0, 0, 0, 0, 0, 0, 0, 0, 0, 0, 0, 0, 0, 0, 0, 0, 0, 0, 520, 519, 519, 519, 519, 519, 519, 519, 519, 518, 518, 518, 518, 518, 518, 518, 519, 519, 519, 519, 519, 519, 519, 519, 519, 519, 519, 519, 519, 519, 519, 519, 519, 519, 519, 519, 520, 521, 521, 521, 521, 521, 521, 521, 521, 521, 521, 521, 520, 520, 521, 521, 521, 521, 521, 521, 521, 521, 521, 521, 522, 522, 522, 522, 522, 522, 522, 522, 522, 522, 522, 523, 523, 523, 523, 523, 523, 523, 523, 523, 523, 523, 523, 523, 523, 523, 523, 523, 524, 524, 524, 524, 524, 524, 524, 524, 524, 524, 524, 524, 524, 524, 524, 525, 525, 525, 525, 525, 525, 525, 525, 525, 525, 525, 524, 524, 524, 524, 525, 525, 525, 526, 526, 526, 526, 526, 526, 526, 526, 526, 527, 527, 527, 527, 527, 527, 527, 527, 527, 527, 527, 527, 527, 527, 527, 527, 527, 527, 527, 527, 527, 527, 527, 527, 527, 527, 527, 527, 527, 527, 527, 527, 527, 527, 527, 527, 528, 528, 528, 528, 528, 528, 528, 528, 529, 529, 529, 529, 529, 529, 529, 529, 529, 529, 530, 530, 529, 529, 529, 529, 529, 529, 529, 530, 530, 530, 530, 530, 530, 530, 530, 530, 530, 530, 531, 531, 531, 531, 531, 531, 531, 531, 531, 531, 531, 531, 531, 531, 532, 533, 533, 533, 533, 533, 533, 534, 534, 534, 535, 535, 535, 535, 536, 536, 536, 536, 536, 536, 536, 536, 536, 536, 536, 536, 536, 536, 536, 536, 536, 536, 536, 536, 537, 537, 537, 537, 537, 537, 537, 537, 537, 538, 538, 538, 539, 540, 540, 541, 541, 541, 541, 541, 541, 541, 541, 541, 541, 541, 541, 541, 541, 541, 541, 542, 542, 542, 542, 542, 542, 543, 543, 543, 543, 543, 543, 544, 544, 544, 544, 545, 545, 546, 546, 546, 546, 546, 547, 547, 547, 547, 548, 549, 549, 549, 549, 549, 549, 549, 549, 549, 549, 550, 550, 550, 550, 551, 551, 552, 552, 552, 552, 553, 553, 554, 554, 554, 554, 554, 554, 554, 554, 555, 555, 555, 555, 555, 555, 556, 556, 556, 557, 0, 0, 0, 0, 0, 0, 0, 0, 0, 0, 0, 0, 0, 0, 0, 0, 0, 0, 0, 0, 0, 0, 0, 0, 0, 0, 0, 0, 0, 0, 0, 0, 0, 0, 0, 0, 0, 0, 0, 0, 0, 0, 0, 0, 0, 0, 0, 0, 0, 0, 0, 0, 0, 0, 0, 0, 0, 0, 0, 0, 0, 0, 0, 0, 0, 0, 0, 0, 0, 0, 0, 0, 0, 0, 0, 0, 0, 0, 0, 0, 0, 0, 0, 0, 0, 0, 0, 0, 0, 0, 0, 0, 0, 0, 0, 0, 0, 0, 0, 0, 0, 0, 0, 0, 0, 0, 0, 0, 0, 0, 0, 0, 0, 0, 0, 0, 0, 0, 0, 0, 0, 0, 0, 0, 0, 0, 0, 0, 0, 0, 0, 0, 0, 0, 0, 0, 0, 0, 0, 0, 0, 0, 0, 0, 0, 0, 0, 0, 0, 0, 0, 0, 0, 0, 0, 0, 0, 0, 0, 0, 0, 0, 0, 0,
       0, 0, 0, 0, 0, 0, 0, 0, 0, 0, 0, 0, 0, 0, 0, 0, 0, 0, 0, 0, 0, 0, 0, 0, 0, 0, 0, 0, 0, 0, 0, 0, 0, 0, 0, 0, 0, 0, 0, 0, 0, 0, 0, 0, 0, 0, 0, 0, 0, 0, 0, 0, 0, 0, 0, 0, 0, 0, 0, 0, 0, 0, 0, 0, 0, 0, 0, 0, 0, 0, 0, 0, 0, 0, 0, 0, 0, 0, 0, 0, 0, 0, 0, 0, 0, 0, 0, 0, 0, 0, 0, 0, 0, 0, 0, 0, 0, 0, 0, 0, 0, 0, 0, 0, 0, 0, 0, 0, 0, 0, 0, 0, 0, 0, 0, 0, 0, 0, 0, 0, 0, 0, 0, 0, 0, 520, 519, 519, 519, 519, 519, 519, 519, 519, 518, 518, 518, 518, 518, 518, 518, 518, 519, 519, 519, 519, 519, 519, 519, 519, 519, 519, 519, 519, 519, 519, 519, 519, 519, 519, 520, 520, 521, 521, 521, 521, 521, 521, 521, 521, 521, 521, 521, 521, 521, 521, 521, 521, 521, 521, 521, 521, 521, 521, 522, 522, 522, 522, 522, 522, 523, 522, 522, 522, 523, 523, 523, 523, 523, 523, 523, 523, 523, 523, 523, 523, 523, 523, 523, 523, 523, 523, 523, 524, 524, 524, 524, 524, 524, 524, 524, 524, 524, 524, 524, 524, 524, 524, 525, 525, 525, 525, 525, 525, 525, 525, 525, 525, 525, 525, 525, 525, 525, 525, 525, 525, 526, 526, 526, 526, 526, 526, 526, 526, 526, 527, 527, 527, 527, 527, 527, 527, 527, 527, 527, 527, 527, 527, 527, 527, 527, 527, 527, 527, 527, 528, 527, 527, 527, 527, 527, 527, 527, 527, 527, 527, 527, 527, 527, 527, 527, 528, 528, 528, 528, 528, 528, 528, 528, 529, 529, 529, 529, 529, 529, 530, 530, 530, 530, 530, 530, 530, 529, 529, 529, 529, 529, 530, 530, 530, 530, 530, 530, 530, 530, 530, 530, 530, 530, 531, 531, 531, 531, 531, 531, 531, 531, 531, 531, 531, 531, 531, 531, 532, 533, 533, 533, 533, 533, 533, 534, 534, 534, 535, 535, 535, 535, 535, 535, 535, 535, 535, 535, 535, 535, 535, 536, 536, 536, 536, 536, 536, 536, 536, 536, 536, 536, 536, 536, 537, 537, 537, 537, 537, 537, 537, 537, 537, 538, 538, 540, 540, 540, 541, 541, 541, 541, 541, 541, 541, 541, 541, 541, 541, 541, 541, 541, 541, 541, 541, 542, 542, 542, 542, 542, 542, 542, 542, 542, 542, 543, 543, 543, 544, 544, 545, 545, 545, 545, 545, 545, 546, 546, 546, 547, 548, 548, 548, 548, 548, 549, 549, 549, 549, 549, 549, 549, 549, 550, 550, 551, 551, 551, 551, 552, 552, 552, 552, 553, 553, 553, 553, 554, 554, 554, 554, 555, 555, 555, 555, 555, 555, 555, 556, 556, 556, 557, 0, 0, 0, 0, 0, 0, 0, 0, 0, 0, 0, 0, 0, 0, 0, 0, 0, 0, 0, 0, 0, 0, 0, 0, 0, 0, 0, 0, 0, 0, 0, 0, 0, 0, 0, 0, 0, 0, 0, 0, 0, 0, 0, 0, 0, 0, 0, 0, 0, 0, 0, 0, 0, 0, 0, 0, 0, 0, 0, 0, 0, 0, 0, 0, 0, 0, 0, 0, 0, 0, 0, 0, 0, 0, 0, 0, 0, 0, 0, 0, 0, 0, 0, 0, 0, 0, 0, 0, 0, 0, 0, 0, 0, 0, 0, 0, 0, 0, 0, 0, 0, 0, 0, 0, 0, 0, 0, 0, 0, 0, 0, 0, 0, 0, 0, 0, 0, 0, 0, 0, 0, 0, 0, 0, 0, 0, 0, 0, 0, 0, 0, 0, 0, 0, 0, 0, 0, 0, 0, 0, 0, 0, 0, 0, 0, 0, 0, 0, 0, 0, 0, 0, 0, 0, 0, 0, 0, 0, 0, 0, 0, 0, 0,
       0, 0, 0, 0, 0, 0, 0, 0, 0, 0, 0, 0, 0, 0, 0, 0, 0, 0, 0, 0, 0, 0, 0, 0, 0, 0, 0, 0, 0, 0, 0, 0, 0, 0, 0, 0, 0, 0, 0, 0, 0, 0, 0, 0, 0, 0, 0, 0, 0, 0, 0, 0, 0, 0, 0, 0, 0, 0, 0, 0, 0, 0, 0, 0, 0, 0, 0, 0, 0, 0, 0, 0, 0, 0, 0, 0, 0, 0, 0, 0, 0, 0, 0, 0, 0, 0, 0, 0, 0, 0, 0, 0, 0, 0, 0, 0, 0, 0, 0, 0, 0, 0, 0, 0, 0, 0, 0, 0, 0, 0, 0, 0, 0, 0, 0, 0, 0, 0, 0, 0, 0, 0, 0, 0, 0, 520, 519, 519, 519, 519, 519, 519, 519, 519, 519, 518, 518, 518, 518, 518, 518, 518, 519, 519, 519, 519, 519, 519, 519, 519, 519, 519, 519, 519, 519, 519, 519, 520, 520, 520, 520, 520, 521, 521, 521, 521, 521, 521, 521, 521, 521, 521, 521, 521, 521, 521, 521, 521, 521, 521, 521, 521, 521, 522, 522, 522, 522, 523, 523, 523, 523, 523, 523, 523, 523, 523, 523, 523, 523, 523, 523, 523, 523, 523, 523, 523, 523, 523, 524, 523, 523, 524, 524, 524, 524, 524, 524, 524, 524, 524, 524, 524, 524, 524, 525, 525, 525, 525, 525, 525, 525, 525, 525, 525, 525, 525, 525, 525, 525, 525, 525, 525, 525, 525, 525, 526, 526, 526, 526, 526, 526, 526, 526, 527, 527, 527, 527, 527, 527, 527, 527, 527, 527, 527, 527, 527, 527, 527, 527, 527, 527, 528, 528, 528, 528, 528, 527, 527, 527, 527, 527, 527, 527, 527, 527, 527, 527, 527, 528, 528, 528, 528, 528, 528, 528, 528, 528, 528, 528, 529, 529, 529, 529, 529, 529, 530, 530, 530, 530, 530, 530, 530, 530, 530, 530, 530, 530, 530, 530, 530, 530, 530, 530, 530, 530, 530, 530, 530, 530, 531, 531, 531, 531, 531, 531, 531, 531, 531, 531, 531, 531, 531, 531, 531, 533, 533, 533, 533, 533, 533, 533, 533, 534, 534, 534, 535, 535, 535, 535, 535, 535, 535, 535, 535, 535, 535, 536, 535, 535, 536, 536, 536, 536, 536, 536, 536, 536, 536, 536, 537, 537, 537, 537, 537, 537, 537, 537, 537, 538, 538, 539, 540, 540, 540, 540, 540, 540, 540, 541, 541, 541, 541, 541, 541, 541, 541, 541, 541, 541, 541, 541, 541, 541, 541, 541, 541, 541, 541, 542, 542, 542, 543, 543, 543, 544, 544, 544, 544, 544, 545, 545, 545, 545, 545, 546, 547, 547, 547, 548, 548, 548, 548, 548, 548, 548, 548, 548, 549, 549, 549, 550, 550, 551, 551, 551, 551, 552, 552, 552, 552, 552, 552, 552, 552, 553, 553, 554, 554, 554, 554, 554, 555, 555, 555, 555, 555, 556, 556, 0, 0, 0, 0, 0, 0, 0, 0, 0, 0, 0, 0, 0, 0, 0, 0, 0, 0, 0, 0, 0, 0, 0, 0, 0, 0, 0, 0, 0, 0, 0, 0, 0, 0, 0, 0, 0, 0, 0, 0, 0, 0, 0, 0, 0, 0, 0, 0, 0, 0, 0, 0, 0, 0, 0, 0, 0, 0, 0, 0, 0, 0, 0, 0, 0, 0, 0, 0, 0, 0, 0, 0, 0, 0, 0, 0, 0, 0, 0, 0, 0, 0, 0, 0, 0, 0, 0, 0, 0, 0, 0, 0, 0, 0, 0, 0, 0, 0, 0, 0, 0, 0, 0, 0, 0, 0, 0, 0, 0, 0, 0, 0, 0, 0, 0, 0, 0, 0, 0, 0, 0, 0, 0, 0, 0, 0, 0, 0, 0, 0, 0, 0, 0, 0, 0, 0, 0, 0, 0, 0, 0, 0, 0, 0, 0, 0, 0, 0, 0, 0, 0, 0, 0, 0, 0, 0, 0, 0, 0, 0, 0, 0,
       0, 0, 0, 0, 0, 0, 0, 0, 0, 0, 0, 0, 0, 0, 0, 0, 0, 0, 0, 0, 0, 0, 0, 0, 0, 0, 0, 0, 0, 0, 0, 0, 0, 0, 0, 0, 0, 0, 0, 0, 0, 0, 0, 0, 0, 0, 0, 0, 0, 0, 0, 0, 0, 0, 0, 0, 0, 0, 0, 0, 0, 0, 0, 0, 0, 0, 0, 0, 0, 0, 0, 0, 0, 0, 0, 0, 0, 0, 0, 0, 0, 0, 0, 0, 0, 0, 0, 0, 0, 0, 0, 0, 0, 0, 0, 0, 0, 0, 0, 0, 0, 0, 0, 0, 0, 0, 0, 0, 0, 0, 0, 0, 0, 0, 0, 0, 0, 0, 0, 0, 0, 0, 0, 0, 0, 520, 519, 519, 519, 519, 519, 519, 519, 519, 519, 519, 518, 518, 518, 518, 518, 518, 519, 519, 519, 519, 519, 519, 519, 519, 519, 519, 519, 519, 519, 520, 520, 520, 520, 520, 520, 520, 521, 521, 521, 521, 521, 521, 521, 521, 521, 521, 521, 521, 521, 521, 521, 521, 521, 521, 522, 522, 522, 522, 523, 523, 523, 523, 523, 523, 523, 523, 523, 523, 523, 523, 523, 523, 523, 523, 523, 523, 523, 523, 523, 523, 523, 523, 524, 524, 524, 524, 524, 524, 524, 524, 524, 524, 524, 524, 524, 524, 525, 525, 525, 525, 525, 525, 525, 525, 525, 525, 525, 525, 525, 525, 525, 525, 525, 525, 525, 525, 525, 525, 526, 526, 526, 526, 526, 526, 526, 526, 526, 527, 527, 527, 527, 527, 527, 527, 527, 527, 527, 527, 527, 527, 527, 527, 527, 528, 528, 528, 528, 528, 528, 528, 528, 528, 528, 528, 527, 527, 527, 527, 527, 527, 527, 528, 528, 528, 528, 528, 528, 528, 528, 528, 528, 528, 528, 529, 529, 530, 530, 530, 530, 530, 530, 530, 531, 531, 530, 530, 530, 530, 530, 530, 530, 530, 530, 530, 530, 530, 530, 530, 530, 530, 530, 531, 531, 531, 531, 531, 531, 531, 531, 531, 531, 531, 531, 531, 531, 531, 531, 531, 533, 533, 533, 533, 533, 533, 533, 533, 533, 534, 534, 534, 534, 535, 535, 535, 535, 535, 535, 535, 535, 535, 535, 535, 535, 535, 536, 536, 536, 536, 536, 536, 536, 536, 536, 537, 537, 537, 537, 537, 537, 537, 537, 537, 537, 537, 539, 539, 539, 539, 540, 540, 540, 540, 540, 540, 540, 540, 540, 540, 540, 541, 541, 541, 541, 541, 541, 541, 541, 541, 541, 541, 541, 541, 541, 541, 542, 542, 542, 543, 543, 544, 544, 544, 544, 544, 545, 545, 545, 545, 545, 546, 546, 546, 547, 547, 547, 548, 548, 548, 548, 548, 548, 548, 548, 548, 549, 549, 550, 550, 550, 551, 551, 551, 551, 551, 551, 551, 552, 552, 552, 552, 552, 553, 553, 553, 553, 553, 554, 555, 555, 555, 555, 555, 0, 0, 0, 0, 0, 0, 0, 0, 0, 0, 0, 0, 0, 0, 0, 0, 0, 0, 0, 0, 0, 0, 0, 0, 0, 0, 0, 0, 0, 0, 0, 0, 0, 0, 0, 0, 0, 0, 0, 0, 0, 0, 0, 0, 0, 0, 0, 0, 0, 0, 0, 0, 0, 0, 0, 0, 0, 0, 0, 0, 0, 0, 0, 0, 0, 0, 0, 0, 0, 0, 0, 0, 0, 0, 0, 0, 0, 0, 0, 0, 0, 0, 0, 0, 0, 0, 0, 0, 0, 0, 0, 0, 0, 0, 0, 0, 0, 0, 0, 0, 0, 0, 0, 0, 0, 0, 0, 0, 0, 0, 0, 0, 0, 0, 0, 0, 0, 0, 0, 0, 0, 0, 0, 0, 0, 0, 0, 0, 0, 0, 0, 0, 0, 0, 0, 0, 0, 0, 0, 0, 0, 0, 0, 0, 0, 0, 0, 0, 0, 0, 0, 0, 0, 0, 0, 0, 0, 0, 0, 0, 0, 0,
       0, 0, 0, 0, 0, 0, 0, 0, 0, 0, 0, 0, 0, 0, 0, 0, 0, 0, 0, 0, 0, 0, 0, 0, 0, 0, 0, 0, 0, 0, 0, 0, 0, 0, 0, 0, 0, 0, 0, 0, 0, 0, 0, 0, 0, 0, 0, 0, 0, 0, 0, 0, 0, 0, 0, 0, 0, 0, 0, 0, 0, 0, 0, 0, 0, 0, 0, 0, 0, 0, 0, 0, 0, 0, 0, 0, 0, 0, 0, 0, 0, 0, 0, 0, 0, 0, 0, 0, 0, 0, 0, 0, 0, 0, 0, 0, 0, 0, 0, 0, 0, 0, 0, 0, 0, 0, 0, 0, 0, 0, 0, 0, 0, 0, 0, 0, 0, 0, 0, 0, 0, 0, 0, 0, 0, 0, 519, 519, 519, 519, 519, 519, 519, 519, 519, 519, 519, 518, 518, 518, 519, 519, 519, 519, 519, 519, 519, 519, 519, 519, 519, 520, 520, 520, 520, 520, 520, 520, 520, 520, 520, 520, 521, 521, 521, 521, 521, 521, 521, 521, 521, 521, 521, 521, 521, 521, 521, 521, 521, 521, 522, 522, 522, 523, 523, 523, 523, 523, 523, 523, 523, 523, 523, 523, 523, 523, 523, 523, 523, 523, 523, 523, 523, 523, 523, 523, 523, 523, 524, 524, 524, 524, 524, 524, 524, 524, 525, 525, 525, 525, 525, 525, 525, 525, 525, 525, 525, 525, 525, 525, 525, 525, 525, 525, 525, 525, 525, 525, 525, 525, 525, 525, 526, 526, 526, 526, 526, 526, 526, 526, 526, 526, 526, 527, 527, 527, 527, 527, 527, 527, 527, 527, 527, 527, 527, 528, 528, 528, 528, 528, 528, 528, 528, 528, 528, 528, 528, 528, 528, 528, 528, 528, 528, 527, 527, 527, 528, 528, 528, 528, 528, 529, 529, 529, 529, 529, 529, 529, 529, 530, 530, 530, 530, 530, 530, 531, 531, 531, 531, 531, 531, 531, 531, 531, 531, 530, 530, 531, 531, 531, 531, 530, 530, 530, 530, 530, 531, 531, 531, 531, 531, 531, 531, 531, 531, 531, 531, 531, 531, 531, 531, 531, 532, 532, 533, 533, 533, 533, 533, 533, 533, 533, 533, 534, 534, 534, 534, 535, 535, 535, 535, 535, 535, 535, 535, 535, 535, 535, 535, 535, 536, 536, 536, 536, 536, 536, 536, 536, 536, 536, 536, 536, 536, 537, 537, 537, 537, 537, 537, 537, 538, 538, 539, 539, 539, 539, 539, 539, 539, 540, 540, 540, 540, 540, 540, 540, 541, 541, 541, 541, 541, 541, 541, 541, 541, 541, 541, 541, 541, 541, 541, 541, 541, 542, 543, 543, 543, 544, 544, 544, 544, 544, 544, 544, 545, 546, 546, 546, 546, 547, 547, 547, 547, 547, 547, 547, 547, 547, 547, 548, 548, 549, 549, 549, 549, 549, 550, 550, 550, 550, 550, 550, 551, 551, 551, 551, 552, 552, 553, 552, 552, 553, 553, 554, 554, 554, 555, 555, 0, 0, 0, 0, 0, 0, 0, 0, 0, 0, 0, 0, 0, 0, 0, 0, 0, 0, 0, 0, 0, 0, 0, 0, 0, 0, 0, 0, 0, 0, 0, 0, 0, 0, 0, 0, 0, 0, 0, 0, 0, 0, 0, 0, 0, 0, 0, 0, 0, 0, 0, 0, 0, 0, 0, 0, 0, 0, 0, 0, 0, 0, 0, 0, 0, 0, 0, 0, 0, 0, 0, 0, 0, 0, 0, 0, 0, 0, 0, 0, 0, 0, 0, 0, 0, 0, 0, 0, 0, 0, 0, 0, 0, 0, 0, 0, 0, 0, 0, 0, 0, 0, 0, 0, 0, 0, 0, 0, 0, 0, 0, 0, 0, 0, 0, 0, 0, 0, 0, 0, 0, 0, 0, 0, 0, 0, 0, 0, 0, 0, 0, 0, 0, 0, 0, 0, 0, 0, 0, 0, 0, 0, 0, 0, 0, 0, 0, 0, 0, 0, 0, 0, 0, 0, 0, 0, 0, 0, 0, 0, 0, 0,
       0, 0, 0, 0, 0, 0, 0, 0, 0, 0, 0, 0, 0, 0, 0, 0, 0, 0, 0, 0, 0, 0, 0, 0, 0, 0, 0, 0, 0, 0, 0, 0, 0, 0, 0, 0, 0, 0, 0, 0, 0, 0, 0, 0, 0, 0, 0, 0, 0, 0, 0, 0, 0, 0, 0, 0, 0, 0, 0, 0, 0, 0, 0, 0, 0, 0, 0, 0, 0, 0, 0, 0, 0, 0, 0, 0, 0, 0, 0, 0, 0, 0, 0, 0, 0, 0, 0, 0, 0, 0, 0, 0, 0, 0, 0, 0, 0, 0, 0, 0, 0, 0, 0, 0, 0, 0, 0, 0, 0, 0, 0, 0, 0, 0, 0, 0, 0, 0, 0, 0, 0, 0, 0, 0, 0, 0, 519, 519, 519, 519, 519, 519, 519, 519, 519, 519, 519, 519, 519, 519, 519, 519, 519, 519, 519, 520, 520, 519, 519, 519, 519, 520, 520, 520, 520, 520, 520, 520, 520, 520, 520, 520, 521, 521, 521, 521, 521, 522, 521, 521, 521, 522, 521, 521, 521, 521, 521, 521, 521, 522, 522, 522, 523, 523, 523, 523, 523, 523, 523, 523, 523, 523, 523, 523, 523, 523, 523, 523, 523, 523, 524, 524, 523, 523, 523, 523, 523, 524, 524, 524, 525, 525, 525, 525, 525, 525, 525, 525, 525, 525, 525, 525, 525, 525, 525, 525, 525, 525, 525, 525, 525, 525, 525, 525, 525, 525, 525, 525, 525, 525, 525, 526, 526, 526, 527, 527, 526, 526, 526, 526, 526, 526, 527, 527, 527, 527, 527, 527, 528, 528, 528, 528, 528, 528, 528, 528, 528, 528, 528, 528, 529, 529, 529, 529, 529, 529, 529, 529, 529, 529, 529, 528, 528, 528, 528, 528, 529, 529, 528, 528, 529, 529, 529, 529, 529, 529, 529, 529, 529, 530, 530, 530, 530, 530, 530, 531, 531, 531, 531, 531, 531, 531, 531, 531, 531, 531, 531, 531, 531, 531, 531, 531, 531, 530, 530, 530, 531, 531, 531, 531, 531, 531, 531, 531, 531, 531, 531, 531, 531, 531, 531, 532, 532, 532, 533, 533, 533, 533, 533, 533, 533, 533, 534, 534, 534, 534, 534, 535, 535, 535, 535, 535, 535, 535, 535, 535, 535, 535, 535, 535, 536, 536, 536, 536, 536, 536, 536, 536, 536, 536, 536, 536, 536, 536, 536, 537, 537, 537, 537, 537, 538, 538, 538, 538, 539, 539, 539, 539, 539, 539, 540, 540, 540, 540, 540, 540, 541, 541, 541, 541, 541, 541, 541, 541, 541, 541, 541, 541, 541, 541, 541, 541, 541, 541, 542, 543, 543, 543, 544, 544, 544, 544, 544, 544, 544, 545, 545, 545, 546, 546, 546, 547, 547, 546, 546, 546, 546, 547, 547, 547, 547, 548, 548, 548, 548, 549, 549, 549, 549, 549, 549, 549, 550, 550, 550, 550, 550, 551, 552, 551, 551, 552, 552, 553, 553, 553, 554, 554, 0, 0, 0, 0, 0, 0, 0, 0, 0, 0, 0, 0, 0, 0, 0, 0, 0, 0, 0, 0, 0, 0, 0, 0, 0, 0, 0, 0, 0, 0, 0, 0, 0, 0, 0, 0, 0, 0, 0, 0, 0, 0, 0, 0, 0, 0, 0, 0, 0, 0, 0, 0, 0, 0, 0, 0, 0, 0, 0, 0, 0, 0, 0, 0, 0, 0, 0, 0, 0, 0, 0, 0, 0, 0, 0, 0, 0, 0, 0, 0, 0, 0, 0, 0, 0, 0, 0, 0, 0, 0, 0, 0, 0, 0, 0, 0, 0, 0, 0, 0, 0, 0, 0, 0, 0, 0, 0, 0, 0, 0, 0, 0, 0, 0, 0, 0, 0, 0, 0, 0, 0, 0, 0, 0, 0, 0, 0, 0, 0, 0, 0, 0, 0, 0, 0, 0, 0, 0, 0, 0, 0, 0, 0, 0, 0, 0, 0, 0, 0, 0, 0, 0, 0, 0, 0, 0, 0, 0, 0, 0, 0, 0,
       0, 0, 0, 0, 0, 0, 0, 0, 0, 0, 0, 0, 0, 0, 0, 0, 0, 0, 0, 0, 0, 0, 0, 0, 0, 0, 0, 0, 0, 0, 0, 0, 0, 0, 0, 0, 0, 0, 0, 0, 0, 0, 0, 0, 0, 0, 0, 0, 0, 0, 0, 0, 0, 0, 0, 0, 0, 0, 0, 0, 0, 0, 0, 0, 0, 0, 0, 0, 0, 0, 0, 0, 0, 0, 0, 0, 0, 0, 0, 0, 0, 0, 0, 0, 0, 0, 0, 0, 0, 0, 0, 0, 0, 0, 0, 0, 0, 0, 0, 0, 0, 0, 0, 0, 0, 0, 0, 0, 0, 0, 0, 0, 0, 0, 0, 0, 0, 0, 0, 0, 0, 0, 0, 0, 0, 0, 519, 519, 519, 519, 519, 519, 519, 519, 519, 519, 519, 519, 519, 519, 519, 519, 519, 519, 519, 520, 520, 519, 519, 519, 520, 520, 520, 520, 520, 520, 520, 520, 520, 520, 520, 520, 521, 521, 521, 521, 521, 522, 521, 521, 522, 522, 522, 522, 522, 521, 521, 522, 522, 522, 523, 523, 523, 523, 523, 523, 523, 523, 523, 523, 523, 523, 523, 523, 523, 523, 523, 523, 523, 524, 524, 524, 524, 524, 524, 524, 524, 524, 525, 525, 525, 525, 525, 525, 525, 525, 525, 525, 525, 525, 526, 526, 526, 526, 526, 526, 525, 525, 525, 525, 525, 525, 525, 525, 525, 525, 525, 525, 525, 526, 526, 526, 527, 527, 527, 527, 527, 527, 527, 527, 527, 527, 527, 528, 528, 528, 528, 528, 528, 528, 528, 528, 528, 528, 528, 528, 528, 528, 529, 529, 529, 529, 529, 529, 529, 529, 529, 529, 529, 529, 529, 529, 529, 529, 529, 529, 529, 530, 529, 529, 530, 530, 529, 529, 529, 529, 529, 529, 530, 530, 530, 530, 531, 531, 531, 531, 531, 532, 532, 532, 532, 532, 531, 531, 531, 531, 531, 531, 531, 531, 531, 531, 531, 531, 531, 531, 531, 531, 531, 531, 531, 531, 531, 531, 531, 531, 531, 532, 532, 532, 532, 532, 532, 532, 533, 533, 533, 534, 533, 533, 533, 534, 534, 534, 534, 534, 534, 535, 535, 535, 535, 535, 535, 535, 535, 535, 535, 535, 535, 535, 536, 536, 536, 536, 536, 536, 536, 536, 536, 536, 536, 536, 536, 536, 536, 536, 537, 537, 537, 537, 538, 538, 538, 538, 538, 539, 539, 539, 539, 539, 539, 539, 539, 539, 540, 540, 540, 540, 541, 541, 541, 541, 541, 541, 541, 541, 541, 541, 541, 541, 541, 541, 541, 541, 542, 542, 543, 543, 544, 544, 544, 544, 544, 544, 544, 545, 545, 545, 545, 546, 546, 546, 546, 546, 546, 546, 546, 546, 546, 546, 546, 547, 547, 547, 548, 548, 548, 549, 549, 549, 549, 549, 549, 549, 549, 550, 550, 550, 551, 551, 551, 551, 551, 552, 552, 552, 553, 553, 554, 0, 0, 0, 0, 0, 0, 0, 0, 0, 0, 0, 0, 0, 0, 0, 0, 0, 0, 0, 0, 0, 0, 0, 0, 0, 0, 0, 0, 0, 0, 0, 0, 0, 0, 0, 0, 0, 0, 0, 0, 0, 0, 0, 0, 0, 0, 0, 0, 0, 0, 0, 0, 0, 0, 0, 0, 0, 0, 0, 0, 0, 0, 0, 0, 0, 0, 0, 0, 0, 0, 0, 0, 0, 0, 0, 0, 0, 0, 0, 0, 0, 0, 0, 0, 0, 0, 0, 0, 0, 0, 0, 0, 0, 0, 0, 0, 0, 0, 0, 0, 0, 0, 0, 0, 0, 0, 0, 0, 0, 0, 0, 0, 0, 0, 0, 0, 0, 0, 0, 0, 0, 0, 0, 0, 0, 0, 0, 0, 0, 0, 0, 0, 0, 0, 0, 0, 0, 0, 0, 0, 0, 0, 0, 0, 0, 0, 0, 0, 0, 0, 0, 0, 0, 0, 0, 0, 0, 0, 0, 0, 0,
       0, 0, 0, 0, 0, 0, 0, 0, 0, 0, 0, 0, 0, 0, 0, 0, 0, 0, 0, 0, 0, 0, 0, 0, 0, 0, 0, 0, 0, 0, 0, 0, 0, 0, 0, 0, 0, 0, 0, 0, 0, 0, 0, 0, 0, 0, 0, 0, 0, 0, 0, 0, 0, 0, 0, 0, 0, 0, 0, 0, 0, 0, 0, 0, 0, 0, 0, 0, 0, 0, 0, 0, 0, 0, 0, 0, 0, 0, 0, 0, 0, 0, 0, 0, 0, 0, 0, 0, 0, 0, 0, 0, 0, 0, 0, 0, 0, 0, 0, 0, 0, 0, 0, 0, 0, 0, 0, 0, 0, 0, 0, 0, 0, 0, 0, 0, 0, 0, 0, 0, 0, 0, 0, 0, 0, 0, 519, 519, 519, 519, 519, 519, 519, 519, 519, 519, 519, 519, 519, 519, 519, 519, 519, 520, 520, 520, 520, 520, 520, 520, 520, 520, 520, 520, 520, 521, 521, 520, 520, 520, 520, 521, 522, 522, 522, 522, 522, 522, 522, 522, 522, 522, 522, 522, 522, 522, 522, 522, 523, 523, 523, 523, 523, 523, 523, 523, 523, 523, 523, 523, 523, 523, 523, 523, 523, 523, 523, 523, 524, 524, 524, 524, 524, 524, 524, 524, 524, 524, 525, 525, 525, 526, 526, 526, 526, 526, 526, 526, 526, 526, 526, 527, 527, 527, 527, 527, 527, 526, 526, 526, 526, 526, 526, 526, 526, 526, 526, 526, 527, 527, 527, 527, 527, 527, 527, 527, 527, 527, 527, 527, 527, 527, 527, 528, 528, 528, 528, 528, 528, 528, 528, 528, 528, 528, 528, 529, 529, 529, 529, 529, 529, 529, 529, 529, 529, 529, 530, 530, 530, 530, 530, 530, 529, 529, 529, 530, 530, 530, 530, 530, 530, 531, 531, 531, 531, 531, 531, 530, 530, 531, 531, 531, 531, 531, 531, 532, 532, 532, 533, 533, 533, 532, 532, 532, 532, 531, 531, 531, 531, 531, 531, 531, 531, 531, 531, 531, 531, 531, 532, 531, 531, 531, 531, 531, 531, 532, 532, 532, 532, 532, 532, 532, 532, 532, 533, 533, 533, 534, 534, 534, 534, 534, 534, 534, 534, 534, 534, 535, 535, 535, 535, 535, 535, 535, 535, 535, 535, 535, 535, 535, 536, 536, 536, 536, 536, 536, 536, 536, 536, 536, 536, 536, 536, 536, 536, 536, 537, 537, 537, 537, 538, 538, 538, 538, 538, 538, 538, 539, 539, 539, 539, 539, 539, 539, 540, 540, 540, 540, 540, 541, 541, 541, 541, 541, 541, 541, 541, 541, 541, 541, 541, 541, 541, 541, 542, 542, 542, 543, 544, 544, 544, 543, 543, 543, 543, 544, 544, 544, 545, 545, 546, 546, 546, 546, 546, 546, 546, 546, 546, 546, 546, 546, 546, 547, 547, 547, 547, 548, 548, 548, 548, 549, 549, 549, 549, 549, 549, 549, 550, 550, 550, 550, 550, 552, 552, 552, 552, 553, 553, 0, 0, 0, 0, 0, 0, 0, 0, 0, 0, 0, 0, 0, 0, 0, 0, 0, 0, 0, 0, 0, 0, 0, 0, 0, 0, 0, 0, 0, 0, 0, 0, 0, 0, 0, 0, 0, 0, 0, 0, 0, 0, 0, 0, 0, 0, 0, 0, 0, 0, 0, 0, 0, 0, 0, 0, 0, 0, 0, 0, 0, 0, 0, 0, 0, 0, 0, 0, 0, 0, 0, 0, 0, 0, 0, 0, 0, 0, 0, 0, 0, 0, 0, 0, 0, 0, 0, 0, 0, 0, 0, 0, 0, 0, 0, 0, 0, 0, 0, 0, 0, 0, 0, 0, 0, 0, 0, 0, 0, 0, 0, 0, 0, 0, 0, 0, 0, 0, 0, 0, 0, 0, 0, 0, 0, 0, 0, 0, 0, 0, 0, 0, 0, 0, 0, 0, 0, 0, 0, 0, 0, 0, 0, 0, 0, 0, 0, 0, 0, 0, 0, 0, 0, 0, 0, 0, 0, 0, 0, 0, 0,
       0, 0, 0, 0, 0, 0, 0, 0, 0, 0, 0, 0, 0, 0, 0, 0, 0, 0, 0, 0, 0, 0, 0, 0, 0, 0, 0, 0, 0, 0, 0, 0, 0, 0, 0, 0, 0, 0, 0, 0, 0, 0, 0, 0, 0, 0, 0, 0, 0, 0, 0, 0, 0, 0, 0, 0, 0, 0, 0, 0, 0, 0, 0, 0, 0, 0, 0, 0, 0, 0, 0, 0, 0, 0, 0, 0, 0, 0, 0, 0, 0, 0, 0, 0, 0, 0, 0, 0, 0, 0, 0, 0, 0, 0, 0, 0, 0, 0, 0, 0, 0, 0, 0, 0, 0, 0, 0, 0, 0, 0, 0, 0, 0, 0, 0, 0, 0, 0, 0, 0, 0, 0, 0, 0, 0, 0, 0, 520, 519, 519, 520, 520, 520, 520, 520, 519, 519, 519, 519, 519, 519, 520, 520, 520, 520, 520, 520, 520, 520, 520, 520, 520, 520, 520, 520, 521, 521, 521, 521, 521, 521, 522, 522, 522, 522, 522, 523, 523, 522, 522, 523, 523, 523, 523, 523, 522, 522, 523, 523, 523, 523, 523, 523, 523, 523, 523, 523, 523, 523, 523, 523, 523, 523, 524, 524, 524, 524, 524, 524, 524, 524, 524, 524, 524, 524, 524, 525, 525, 526, 526, 526, 527, 527, 527, 527, 527, 527, 526, 526, 526, 527, 527, 527, 527, 527, 527, 527, 527, 527, 527, 526, 526, 526, 526, 526, 527, 527, 527, 527, 527, 527, 527, 527, 527, 527, 527, 527, 527, 527, 527, 527, 527, 527, 528, 528, 528, 528, 528, 529, 529, 529, 529, 529, 529, 529, 529, 529, 529, 529, 529, 529, 529, 529, 530, 530, 530, 531, 531, 531, 531, 531, 531, 531, 531, 531, 531, 531, 531, 531, 531, 531, 531, 531, 531, 531, 531, 531, 531, 531, 531, 531, 531, 531, 531, 532, 532, 533, 533, 533, 534, 533, 533, 533, 532, 532, 532, 532, 531, 531, 532, 532, 532, 532, 532, 532, 532, 532, 532, 532, 531, 531, 532, 532, 532, 532, 532, 532, 533, 533, 533, 533, 533, 533, 533, 534, 534, 534, 534, 534, 534, 534, 534, 534, 535, 534, 534, 535, 535, 535, 535, 535, 535, 535, 535, 535, 535, 535, 535, 536, 536, 536, 536, 536, 536, 536, 536, 536, 536, 536, 536, 536, 536, 536, 536, 536, 537, 537, 537, 537, 537, 538, 538, 538, 538, 538, 538, 538, 538, 539, 539, 539, 539, 539, 539, 540, 540, 540, 540, 540, 540, 541, 541, 541, 541, 541, 541, 541, 541, 541, 541, 541, 541, 541, 541, 541, 542, 542, 542, 543, 544, 544, 543, 543, 543, 543, 544, 544, 544, 545, 545, 545, 546, 546, 546, 546, 546, 546, 546, 546, 546, 546, 546, 546, 547, 547, 547, 547, 548, 548, 548, 548, 548, 548, 548, 548, 549, 549, 549, 549, 549, 549, 550, 550, 551, 551, 551, 552, 552, 552, 0, 0, 0, 0, 0, 0, 0, 0, 0, 0, 0, 0, 0, 0, 0, 0, 0, 0, 0, 0, 0, 0, 0, 0, 0, 0, 0, 0, 0, 0, 0, 0, 0, 0, 0, 0, 0, 0, 0, 0, 0, 0, 0, 0, 0, 0, 0, 0, 0, 0, 0, 0, 0, 0, 0, 0, 0, 0, 0, 0, 0, 0, 0, 0, 0, 0, 0, 0, 0, 0, 0, 0, 0, 0, 0, 0, 0, 0, 0, 0, 0, 0, 0, 0, 0, 0, 0, 0, 0, 0, 0, 0, 0, 0, 0, 0, 0, 0, 0, 0, 0, 0, 0, 0, 0, 0, 0, 0, 0, 0, 0, 0, 0, 0, 0, 0, 0, 0, 0, 0, 0, 0, 0, 0, 0, 0, 0, 0, 0, 0, 0, 0, 0, 0, 0, 0, 0, 0, 0, 0, 0, 0, 0, 0, 0, 0, 0, 0, 0, 0, 0, 0, 0, 0, 0, 0, 0, 0, 0, 0, 0,
       0, 0, 0, 0, 0, 0, 0, 0, 0, 0, 0, 0, 0, 0, 0, 0, 0, 0, 0, 0, 0, 0, 0, 0, 0, 0, 0, 0, 0, 0, 0, 0, 0, 0, 0, 0, 0, 0, 0, 0, 0, 0, 0, 0, 0, 0, 0, 0, 0, 0, 0, 0, 0, 0, 0, 0, 0, 0, 0, 0, 0, 0, 0, 0, 0, 0, 0, 0, 0, 0, 0, 0, 0, 0, 0, 0, 0, 0, 0, 0, 0, 0, 0, 0, 0, 0, 0, 0, 0, 0, 0, 0, 0, 0, 0, 0, 0, 0, 0, 0, 0, 0, 0, 0, 0, 0, 0, 0, 0, 0, 0, 0, 0, 0, 0, 0, 0, 0, 0, 0, 0, 0, 0, 0, 0, 0, 0, 519, 519, 519, 520, 520, 520, 520, 520, 520, 520, 520, 520, 520, 520, 520, 520, 520, 520, 520, 520, 520, 520, 520, 520, 520, 520, 521, 521, 521, 521, 521, 522, 522, 522, 522, 523, 523, 523, 523, 523, 523, 523, 523, 523, 523, 523, 523, 523, 523, 523, 523, 523, 523, 523, 523, 523, 523, 523, 523, 523, 523, 524, 524, 524, 524, 524, 524, 524, 524, 524, 524, 524, 524, 525, 525, 525, 525, 525, 525, 526, 526, 527, 527, 527, 527, 527, 527, 527, 527, 527, 527, 527, 527, 527, 527, 527, 527, 527, 527, 527, 527, 527, 527, 527, 527, 527, 527, 527, 527, 527, 527, 527, 527, 527, 528, 528, 528, 527, 527, 527, 527, 527, 527, 527, 527, 527, 528, 529, 529, 529, 529, 529, 529, 529, 529, 529, 529, 529, 530, 530, 530, 530, 530, 530, 530, 530, 530, 530, 531, 531, 531, 531, 531, 531, 531, 531, 531, 531, 531, 531, 531, 531, 531, 531, 532, 532, 532, 532, 532, 532, 532, 532, 532, 532, 532, 533, 533, 535, 534, 534, 534, 535, 535, 534, 533, 533, 533, 533, 532, 532, 532, 532, 532, 532, 532, 532, 533, 533, 533, 533, 532, 532, 532, 532, 532, 532, 533, 533, 533, 533, 533, 533, 533, 534, 534, 534, 534, 534, 534, 534, 534, 534, 534, 534, 534, 535, 535, 535, 535, 535, 536, 535, 535, 535, 536, 536, 536, 536, 536, 536, 536, 536, 536, 536, 536, 536, 536, 536, 536, 536, 536, 536, 536, 536, 536, 536, 536, 536, 537, 537, 537, 537, 537, 538, 538, 538, 538, 538, 538, 538, 538, 539, 539, 539, 539, 540, 540, 540, 540, 540, 540, 540, 540, 541, 541, 541, 541, 541, 541, 541, 541, 541, 541, 541, 541, 541, 541, 541, 541, 542, 542, 542, 543, 543, 543, 543, 543, 543, 544, 544, 544, 545, 545, 545, 545, 545, 545, 545, 545, 545, 545, 545, 545, 546, 546, 546, 546, 546, 547, 547, 547, 547, 547, 547, 548, 548, 548, 548, 548, 548, 549, 549, 549, 549, 549, 550, 550, 551, 551, 551, 552, 552, 0, 0, 0, 0, 0, 0, 0, 0, 0, 0, 0, 0, 0, 0, 0, 0, 0, 0, 0, 0, 0, 0, 0, 0, 0, 0, 0, 0, 0, 0, 0, 0, 0, 0, 0, 0, 0, 0, 0, 0, 0, 0, 0, 0, 0, 0, 0, 0, 0, 0, 0, 0, 0, 0, 0, 0, 0, 0, 0, 0, 0, 0, 0, 0, 0, 0, 0, 0, 0, 0, 0, 0, 0, 0, 0, 0, 0, 0, 0, 0, 0, 0, 0, 0, 0, 0, 0, 0, 0, 0, 0, 0, 0, 0, 0, 0, 0, 0, 0, 0, 0, 0, 0, 0, 0, 0, 0, 0, 0, 0, 0, 0, 0, 0, 0, 0, 0, 0, 0, 0, 0, 0, 0, 0, 0, 0, 0, 0, 0, 0, 0, 0, 0, 0, 0, 0, 0, 0, 0, 0, 0, 0, 0, 0, 0, 0, 0, 0, 0, 0, 0, 0, 0, 0, 0, 0, 0, 0, 0, 0, 0,
       0, 0, 0, 0, 0, 0, 0, 0, 0, 0, 0, 0, 0, 0, 0, 0, 0, 0, 0, 0, 0, 0, 0, 0, 0, 0, 0, 0, 0, 0, 0, 0, 0, 0, 0, 0, 0, 0, 0, 0, 0, 0, 0, 0, 0, 0, 0, 0, 0, 0, 0, 0, 0, 0, 0, 0, 0, 0, 0, 0, 0, 0, 0, 0, 0, 0, 0, 0, 0, 0, 0, 0, 0, 0, 0, 0, 0, 0, 0, 0, 0, 0, 0, 0, 0, 0, 0, 0, 0, 0, 0, 0, 0, 0, 0, 0, 0, 0, 0, 0, 0, 0, 0, 0, 0, 0, 0, 0, 0, 0, 0, 0, 0, 0, 0, 0, 0, 0, 0, 0, 0, 0, 0, 0, 0, 0, 0, 519, 519, 519, 520, 520, 520, 520, 520, 520, 520, 520, 520, 520, 520, 520, 520, 521, 521, 520, 520, 520, 520, 520, 520, 520, 521, 521, 521, 521, 521, 522, 522, 522, 522, 523, 523, 523, 523, 523, 523, 523, 523, 523, 523, 523, 523, 523, 523, 523, 523, 523, 523, 523, 523, 523, 524, 524, 524, 524, 524, 524, 524, 524, 524, 524, 525, 525, 525, 525, 525, 525, 525, 525, 525, 525, 526, 526, 526, 526, 526, 526, 527, 527, 527, 527, 527, 527, 527, 527, 527, 527, 527, 527, 527, 527, 527, 527, 528, 527, 527, 527, 527, 528, 528, 528, 528, 528, 528, 528, 528, 529, 529, 528, 528, 528, 528, 528, 528, 528, 528, 528, 528, 528, 528, 528, 528, 529, 529, 529, 529, 529, 530, 530, 530, 530, 530, 530, 530, 530, 531, 531, 531, 531, 531, 531, 531, 531, 531, 531, 531, 531, 531, 531, 532, 532, 532, 532, 532, 532, 532, 532, 532, 532, 532, 533, 533, 533, 532, 532, 533, 533, 534, 534, 534, 534, 535, 535, 535, 536, 536, 536, 536, 536, 535, 534, 534, 534, 533, 533, 533, 533, 533, 533, 533, 533, 533, 533, 533, 534, 534, 533, 533, 533, 533, 533, 533, 533, 533, 533, 533, 534, 534, 534, 534, 534, 534, 534, 534, 534, 534, 535, 535, 535, 535, 535, 535, 535, 535, 535, 535, 536, 536, 536, 536, 536, 536, 536, 536, 536, 536, 536, 536, 536, 536, 536, 536, 536, 536, 536, 536, 536, 536, 536, 536, 536, 536, 536, 537, 537, 537, 537, 537, 538, 538, 538, 538, 538, 538, 538, 538, 539, 539, 539, 540, 540, 540, 540, 540, 540, 540, 540, 540, 540, 541, 541, 541, 541, 541, 541, 541, 541, 541, 541, 541, 541, 541, 541, 541, 541, 542, 542, 542, 543, 543, 543, 543, 543, 543, 544, 544, 544, 545, 545, 545, 545, 545, 545, 545, 545, 545, 545, 545, 545, 545, 546, 546, 546, 546, 547, 547, 547, 547, 547, 547, 547, 547, 548, 548, 548, 548, 548, 549, 549, 549, 549, 549, 549, 550, 550, 550, 551, 551, 0, 0, 0, 0, 0, 0, 0, 0, 0, 0, 0, 0, 0, 0, 0, 0, 0, 0, 0, 0, 0, 0, 0, 0, 0, 0, 0, 0, 0, 0, 0, 0, 0, 0, 0, 0, 0, 0, 0, 0, 0, 0, 0, 0, 0, 0, 0, 0, 0, 0, 0, 0, 0, 0, 0, 0, 0, 0, 0, 0, 0, 0, 0, 0, 0, 0, 0, 0, 0, 0, 0, 0, 0, 0, 0, 0, 0, 0, 0, 0, 0, 0, 0, 0, 0, 0, 0, 0, 0, 0, 0, 0, 0, 0, 0, 0, 0, 0, 0, 0, 0, 0, 0, 0, 0, 0, 0, 0, 0, 0, 0, 0, 0, 0, 0, 0, 0, 0, 0, 0, 0, 0, 0, 0, 0, 0, 0, 0, 0, 0, 0, 0, 0, 0, 0, 0, 0, 0, 0, 0, 0, 0, 0, 0, 0, 0, 0, 0, 0, 0, 0, 0, 0, 0, 0, 0, 0, 0, 0, 0, 0,
       0, 0, 0, 0, 0, 0, 0, 0, 0, 0, 0, 0, 0, 0, 0, 0, 0, 0, 0, 0, 0, 0, 0, 0, 0, 0, 0, 0, 0, 0, 0, 0, 0, 0, 0, 0, 0, 0, 0, 0, 0, 0, 0, 0, 0, 0, 0, 0, 0, 0, 0, 0, 0, 0, 0, 0, 0, 0, 0, 0, 0, 0, 0, 0, 0, 0, 0, 0, 0, 0, 0, 0, 0, 0, 0, 0, 0, 0, 0, 0, 0, 0, 0, 0, 0, 0, 0, 0, 0, 0, 0, 0, 0, 0, 0, 0, 0, 0, 0, 0, 0, 0, 0, 0, 0, 0, 0, 0, 0, 0, 0, 0, 0, 0, 0, 0, 0, 0, 0, 0, 0, 0, 0, 0, 0, 0, 0, 0, 0, 521, 521, 521, 521, 521, 520, 520, 520, 520, 520, 520, 520, 521, 521, 521, 521, 521, 521, 521, 521, 521, 521, 521, 521, 522, 523, 523, 523, 523, 523, 523, 523, 523, 523, 523, 523, 523, 523, 523, 523, 523, 523, 523, 523, 523, 523, 523, 523, 523, 524, 524, 524, 524, 524, 524, 524, 524, 524, 525, 525, 525, 525, 525, 525, 525, 525, 525, 525, 525, 526, 526, 526, 526, 526, 526, 527, 527, 527, 527, 527, 527, 527, 527, 527, 527, 527, 528, 528, 528, 528, 528, 528, 528, 528, 528, 528, 528, 528, 528, 528, 528, 528, 528, 529, 529, 530, 529, 529, 529, 529, 530, 530, 530, 530, 529, 529, 529, 529, 529, 529, 529, 528, 528, 529, 530, 530, 530, 530, 530, 531, 531, 531, 531, 531, 531, 531, 531, 531, 531, 531, 531, 531, 531, 531, 531, 532, 532, 532, 532, 532, 532, 532, 532, 533, 533, 533, 533, 533, 533, 533, 533, 533, 534, 534, 534, 534, 534, 535, 535, 535, 536, 536, 536, 536, 536, 537, 537, 537, 537, 537, 536, 536, 536, 536, 536, 535, 534, 533, 533, 533, 533, 534, 534, 534, 534, 534, 534, 534, 534, 534, 534, 534, 534, 534, 534, 534, 534, 534, 535, 535, 535, 535, 535, 535, 535, 535, 535, 535, 535, 536, 536, 536, 536, 536, 536, 536, 536, 536, 536, 536, 536, 536, 536, 536, 536, 536, 536, 536, 536, 536, 536, 536, 536, 536, 536, 536, 536, 536, 536, 536, 536, 536, 536, 536, 537, 537, 537, 537, 537, 537, 538, 538, 538, 538, 538, 539, 539, 539, 539, 539, 539, 540, 540, 540, 540, 540, 540, 541, 540, 540, 541, 541, 541, 541, 541, 541, 541, 541, 541, 541, 541, 541, 541, 541, 541, 541, 541, 541, 542, 542, 543, 543, 542, 542, 542, 542, 544, 544, 544, 545, 545, 545, 545, 545, 545, 545, 545, 545, 545, 545, 545, 545, 546, 546, 546, 546, 546, 547, 547, 547, 547, 547, 547, 547, 548, 548, 548, 548, 548, 549, 549, 549, 549, 549, 549, 549, 550, 550, 550, 550, 0, 0, 0, 0, 0, 0, 0, 0, 0, 0, 0, 0, 0, 0, 0, 0, 0, 0, 0, 0, 0, 0, 0, 0, 0, 0, 0, 0, 0, 0, 0, 0, 0, 0, 0, 0, 0, 0, 0, 0, 0, 0, 0, 0, 0, 0, 0, 0, 0, 0, 0, 0, 0, 0, 0, 0, 0, 0, 0, 0, 0, 0, 0, 0, 0, 0, 0, 0, 0, 0, 0, 0, 0, 0, 0, 0, 0, 0, 0, 0, 0, 0, 0, 0, 0, 0, 0, 0, 0, 0, 0, 0, 0, 0, 0, 0, 0, 0, 0, 0, 0, 0, 0, 0, 0, 0, 0, 0, 0, 0, 0, 0, 0, 0, 0, 0, 0, 0, 0, 0, 0, 0, 0, 0, 0, 0, 0, 0, 0, 0, 0, 0, 0, 0, 0, 0, 0, 0, 0, 0, 0, 0, 0, 0, 0, 0, 0, 0, 0, 0, 0, 0, 0, 0, 0, 0, 0, 0, 0, 0, 0,
       0, 0, 0, 0, 0, 0, 0, 0, 0, 0, 0, 0, 0, 0, 0, 0, 0, 0, 0, 0, 0, 0, 0, 0, 0, 0, 0, 0, 0, 0, 0, 0, 0, 0, 0, 0, 0, 0, 0, 0, 0, 0, 0, 0, 0, 0, 0, 0, 0, 0, 0, 0, 0, 0, 0, 0, 0, 0, 0, 0, 0, 0, 0, 0, 0, 0, 0, 0, 0, 0, 0, 0, 0, 0, 0, 0, 0, 0, 0, 0, 0, 0, 0, 0, 0, 0, 0, 0, 0, 0, 0, 0, 0, 0, 0, 0, 0, 0, 0, 0, 0, 0, 0, 0, 0, 0, 0, 0, 0, 0, 0, 0, 0, 0, 0, 0, 0, 0, 0, 0, 0, 0, 0, 0, 0, 0, 0, 0, 0, 522, 522, 522, 522, 521, 521, 521, 521, 521, 521, 521, 521, 521, 522, 522, 522, 522, 522, 522, 522, 522, 522, 523, 523, 523, 523, 523, 523, 523, 523, 523, 523, 523, 523, 523, 523, 523, 523, 523, 523, 524, 524, 524, 524, 524, 524, 524, 524, 524, 524, 524, 524, 524, 525, 525, 525, 525, 525, 525, 525, 525, 525, 525, 526, 526, 526, 526, 526, 526, 526, 526, 527, 527, 527, 527, 527, 527, 527, 527, 528, 528, 528, 528, 528, 528, 528, 528, 528, 528, 528, 528, 528, 528, 528, 528, 528, 528, 528, 528, 528, 529, 529, 530, 530, 530, 530, 530, 530, 530, 530, 531, 531, 531, 531, 531, 531, 531, 531, 531, 530, 530, 530, 529, 529, 531, 531, 531, 531, 531, 531, 532, 532, 531, 531, 531, 531, 531, 531, 532, 532, 532, 532, 532, 533, 533, 533, 533, 533, 533, 533, 533, 533, 534, 534, 534, 534, 534, 534, 534, 534, 534, 534, 535, 535, 535, 535, 535, 535, 535, 535, 536, 536, 536, 536, 537, 539, 539, 539, 538, 538, 537, 537, 537, 537, 537, 536, 536, 536, 536, 536, 536, 535, 535, 535, 535, 535, 535, 535, 535, 535, 535, 535, 535, 535, 535, 535, 535, 535, 535, 536, 535, 535, 535, 535, 535, 536, 536, 536, 536, 536, 536, 536, 536, 536, 536, 536, 536, 536, 536, 536, 536, 536, 536, 536, 536, 536, 536, 536, 536, 536, 536, 536, 536, 536, 536, 537, 537, 537, 537, 537, 537, 536, 536, 537, 537, 537, 537, 537, 537, 537, 538, 538, 538, 538, 539, 539, 539, 539, 540, 539, 539, 540, 540, 540, 540, 541, 541, 541, 541, 541, 541, 541, 541, 541, 541, 541, 541, 541, 541, 541, 541, 541, 541, 541, 541, 541, 541, 541, 542, 542, 542, 542, 542, 542, 542, 542, 544, 544, 544, 545, 545, 545, 545, 545, 545, 545, 545, 545, 545, 545, 545, 545, 546, 546, 546, 546, 546, 547, 547, 547, 547, 547, 547, 547, 547, 548, 548, 548, 548, 549, 549, 549, 549, 549, 549, 549, 549, 549, 549, 549, 549, 0, 0, 0, 0, 0, 0, 0, 0, 0, 0, 0, 0, 0, 0, 0, 0, 0, 0, 0, 0, 0, 0, 0, 0, 0, 0, 0, 0, 0, 0, 0, 0, 0, 0, 0, 0, 0, 0, 0, 0, 0, 0, 0, 0, 0, 0, 0, 0, 0, 0, 0, 0, 0, 0, 0, 0, 0, 0, 0, 0, 0, 0, 0, 0, 0, 0, 0, 0, 0, 0, 0, 0, 0, 0, 0, 0, 0, 0, 0, 0, 0, 0, 0, 0, 0, 0, 0, 0, 0, 0, 0, 0, 0, 0, 0, 0, 0, 0, 0, 0, 0, 0, 0, 0, 0, 0, 0, 0, 0, 0, 0, 0, 0, 0, 0, 0, 0, 0, 0, 0, 0, 0, 0, 0, 0, 0, 0, 0, 0, 0, 0, 0, 0, 0, 0, 0, 0, 0, 0, 0, 0, 0, 0, 0, 0, 0, 0, 0, 0, 0, 0, 0, 0, 0, 0, 0, 0, 0, 0, 0,
       0, 0, 0, 0, 0, 0, 0, 0, 0, 0, 0, 0, 0, 0, 0, 0, 0, 0, 0, 0, 0, 0, 0, 0, 0, 0, 0, 0, 0, 0, 0, 0, 0, 0, 0, 0, 0, 0, 0, 0, 0, 0, 0, 0, 0, 0, 0, 0, 0, 0, 0, 0, 0, 0, 0, 0, 0, 0, 0, 0, 0, 0, 0, 0, 0, 0, 0, 0, 0, 0, 0, 0, 0, 0, 0, 0, 0, 0, 0, 0, 0, 0, 0, 0, 0, 0, 0, 0, 0, 0, 0, 0, 0, 0, 0, 0, 0, 0, 0, 0, 0, 0, 0, 0, 0, 0, 0, 0, 0, 0, 0, 0, 0, 0, 0, 0, 0, 0, 0, 0, 0, 0, 0, 0, 0, 0, 0, 0, 0, 522, 522, 522, 522, 522, 522, 522, 522, 522, 522, 522, 522, 522, 522, 523, 523, 523, 523, 523, 523, 523, 524, 524, 524, 524, 523, 523, 523, 523, 523, 523, 523, 523, 523, 523, 523, 524, 524, 524, 524, 524, 524, 524, 524, 524, 524, 524, 524, 524, 525, 526, 526, 526, 526, 525, 525, 526, 526, 526, 526, 527, 527, 527, 527, 527, 527, 527, 527, 527, 527, 527, 527, 527, 527, 527, 527, 527, 527, 527, 528, 528, 529, 529, 529, 529, 529, 529, 529, 529, 529, 529, 529, 529, 529, 529, 529, 529, 529, 529, 530, 531, 530, 530, 531, 531, 531, 531, 531, 531, 531, 531, 531, 531, 531, 531, 531, 531, 531, 531, 531, 531, 531, 531, 531, 531, 532, 532, 532, 533, 533, 533, 533, 532, 532, 532, 532, 532, 532, 532, 533, 533, 533, 533, 534, 534, 534, 533, 533, 534, 534, 534, 534, 535, 535, 535, 535, 535, 535, 535, 535, 535, 535, 536, 536, 536, 536, 536, 536, 536, 536, 537, 537, 540, 540, 540, 540, 540, 540, 540, 540, 539, 539, 539, 539, 539, 538, 538, 537, 537, 537, 536, 536, 536, 536, 536, 536, 536, 536, 536, 536, 536, 536, 536, 536, 536, 536, 536, 536, 536, 536, 536, 536, 536, 536, 536, 536, 536, 536, 536, 536, 536, 536, 536, 536, 536, 536, 536, 536, 536, 536, 536, 536, 536, 536, 536, 536, 536, 536, 536, 536, 536, 536, 536, 537, 537, 537, 537, 537, 537, 537, 537, 537, 537, 537, 537, 537, 537, 537, 537, 537, 538, 538, 538, 539, 539, 539, 540, 540, 540, 540, 540, 540, 540, 541, 541, 541, 541, 541, 541, 541, 541, 541, 541, 541, 541, 541, 541, 541, 541, 541, 541, 541, 541, 541, 541, 541, 541, 541, 542, 542, 542, 542, 542, 542, 542, 542, 544, 544, 544, 545, 545, 545, 545, 545, 545, 545, 545, 545, 545, 545, 545, 545, 546, 546, 546, 546, 546, 547, 547, 547, 547, 547, 547, 547, 547, 547, 548, 548, 548, 548, 548, 549, 549, 549, 549, 549, 549, 549, 549, 548, 548, 0, 0, 0, 0, 0, 0, 0, 0, 0, 0, 0, 0, 0, 0, 0, 0, 0, 0, 0, 0, 0, 0, 0, 0, 0, 0, 0, 0, 0, 0, 0, 0, 0, 0, 0, 0, 0, 0, 0, 0, 0, 0, 0, 0, 0, 0, 0, 0, 0, 0, 0, 0, 0, 0, 0, 0, 0, 0, 0, 0, 0, 0, 0, 0, 0, 0, 0, 0, 0, 0, 0, 0, 0, 0, 0, 0, 0, 0, 0, 0, 0, 0, 0, 0, 0, 0, 0, 0, 0, 0, 0, 0, 0, 0, 0, 0, 0, 0, 0, 0, 0, 0, 0, 0, 0, 0, 0, 0, 0, 0, 0, 0, 0, 0, 0, 0, 0, 0, 0, 0, 0, 0, 0, 0, 0, 0, 0, 0, 0, 0, 0, 0, 0, 0, 0, 0, 0, 0, 0, 0, 0, 0, 0, 0, 0, 0, 0, 0, 0, 0, 0, 0, 0, 0, 0, 0, 0, 0, 0, 0,
       0, 0, 0, 0, 0, 0, 0, 0, 0, 0, 0, 0, 0, 0, 0, 0, 0, 0, 0, 0, 0, 0, 0, 0, 0, 0, 0, 0, 0, 0, 0, 0, 0, 0, 0, 0, 0, 0, 0, 0, 0, 0, 0, 0, 0, 0, 0, 0, 0, 0, 0, 0, 0, 0, 0, 0, 0, 0, 0, 0, 0, 0, 0, 0, 0, 0, 0, 0, 0, 0, 0, 0, 0, 0, 0, 0, 0, 0, 0, 0, 0, 0, 0, 0, 0, 0, 0, 0, 0, 0, 0, 0, 0, 0, 0, 0, 0, 0, 0, 0, 0, 0, 0, 0, 0, 0, 0, 0, 0, 0, 0, 0, 0, 0, 0, 0, 0, 0, 0, 0, 0, 0, 0, 0, 0, 0, 0, 0, 0, 523, 523, 523, 523, 523, 523, 523, 523, 523, 523, 523, 523, 523, 523, 523, 523, 523, 523, 524, 524, 524, 525, 525, 525, 525, 524, 523, 523, 523, 523, 523, 524, 524, 524, 524, 524, 524, 524, 524, 524, 525, 525, 525, 525, 525, 525, 525, 525, 525, 526, 526, 527, 527, 527, 527, 527, 527, 527, 527, 527, 527, 527, 527, 527, 527, 527, 527, 527, 527, 527, 527, 527, 527, 527, 527, 528, 528, 528, 528, 529, 530, 530, 530, 530, 531, 531, 530, 530, 530, 530, 530, 530, 530, 530, 530, 530, 530, 531, 531, 531, 531, 531, 531, 531, 531, 531, 531, 531, 531, 531, 531, 531, 531, 531, 531, 531, 531, 531, 531, 531, 531, 532, 532, 532, 533, 533, 534, 534, 534, 534, 534, 534, 534, 534, 533, 533, 533, 533, 534, 534, 534, 534, 535, 535, 535, 535, 534, 534, 534, 534, 535, 535, 535, 536, 536, 536, 536, 536, 536, 536, 536, 536, 536, 537, 537, 537, 537, 537, 536, 536, 540, 541, 541, 541, 542, 541, 541, 541, 541, 541, 541, 541, 541, 541, 540, 539, 539, 538, 538, 538, 537, 537, 537, 537, 537, 537, 537, 537, 537, 536, 536, 536, 536, 536, 536, 536, 536, 536, 536, 536, 536, 536, 536, 536, 536, 536, 536, 536, 536, 536, 536, 536, 536, 536, 536, 536, 536, 536, 536, 536, 536, 536, 536, 536, 537, 537, 537, 537, 537, 537, 537, 537, 537, 537, 537, 537, 537, 537, 537, 537, 537, 537, 537, 537, 538, 538, 538, 538, 538, 538, 539, 539, 539, 539, 540, 540, 540, 540, 541, 541, 541, 541, 541, 541, 541, 541, 541, 541, 541, 541, 541, 541, 541, 541, 541, 541, 541, 541, 541, 541, 541, 541, 541, 541, 541, 541, 541, 541, 542, 542, 542, 542, 542, 542, 542, 542, 544, 544, 544, 545, 545, 545, 545, 545, 545, 545, 545, 545, 545, 545, 545, 546, 546, 546, 546, 546, 546, 547, 547, 547, 547, 547, 547, 547, 547, 547, 547, 547, 548, 548, 548, 549, 549, 549, 549, 549, 549, 549, 548, 548, 548, 0, 0, 0, 0, 0, 0, 0, 0, 0, 0, 0, 0, 0, 0, 0, 0, 0, 0, 0, 0, 0, 0, 0, 0, 0, 0, 0, 0, 0, 0, 0, 0, 0, 0, 0, 0, 0, 0, 0, 0, 0, 0, 0, 0, 0, 0, 0, 0, 0, 0, 0, 0, 0, 0, 0, 0, 0, 0, 0, 0, 0, 0, 0, 0, 0, 0, 0, 0, 0, 0, 0, 0, 0, 0, 0, 0, 0, 0, 0, 0, 0, 0, 0, 0, 0, 0, 0, 0, 0, 0, 0, 0, 0, 0, 0, 0, 0, 0, 0, 0, 0, 0, 0, 0, 0, 0, 0, 0, 0, 0, 0, 0, 0, 0, 0, 0, 0, 0, 0, 0, 0, 0, 0, 0, 0, 0, 0, 0, 0, 0, 0, 0, 0, 0, 0, 0, 0, 0, 0, 0, 0, 0, 0, 0, 0, 0, 0, 0, 0, 0, 0, 0, 0, 0, 0, 0, 0, 0, 0, 0,
       0, 0, 0, 0, 0, 0, 0, 0, 0, 0, 0, 0, 0, 0, 0, 0, 0, 0, 0, 0, 0, 0, 0, 0, 0, 0, 0, 0, 0, 0, 0, 0, 0, 0, 0, 0, 0, 0, 0, 0, 0, 0, 0, 0, 0, 0, 0, 0, 0, 0, 0, 0, 0, 0, 0, 0, 0, 0, 0, 0, 0, 0, 0, 0, 0, 0, 0, 0, 0, 0, 0, 0, 0, 0, 0, 0, 0, 0, 0, 0, 0, 0, 0, 0, 0, 0, 0, 0, 0, 0, 0, 0, 0, 0, 0, 0, 0, 0, 0, 0, 0, 0, 0, 0, 0, 0, 0, 0, 0, 0, 0, 0, 0, 0, 0, 0, 0, 0, 0, 0, 0, 0, 0, 0, 0, 0, 0, 0, 0, 523, 523, 523, 523, 523, 523, 523, 523, 523, 523, 523, 523, 523, 523, 523, 523, 523, 523, 524, 525, 525, 525, 525, 526, 525, 524, 524, 524, 523, 523, 524, 524, 524, 525, 525, 525, 525, 525, 525, 526, 526, 526, 526, 526, 526, 526, 526, 526, 526, 527, 527, 527, 527, 527, 527, 527, 527, 527, 527, 527, 528, 528, 527, 527, 527, 527, 527, 527, 528, 528, 528, 528, 528, 528, 528, 528, 528, 529, 529, 531, 531, 531, 531, 531, 531, 531, 531, 531, 531, 531, 531, 530, 530, 531, 531, 531, 531, 531, 531, 531, 531, 531, 531, 531, 532, 531, 531, 531, 532, 532, 532, 532, 532, 532, 532, 532, 532, 532, 532, 532, 532, 533, 533, 533, 535, 535, 535, 536, 536, 536, 536, 535, 535, 535, 534, 534, 534, 534, 535, 535, 535, 535, 535, 535, 535, 535, 535, 535, 535, 535, 536, 536, 536, 537, 536, 536, 536, 537, 536, 536, 536, 537, 537, 538, 538, 538, 540, 540, 539, 539, 544, 543, 543, 543, 542, 542, 541, 541, 541, 541, 542, 542, 542, 542, 541, 541, 540, 540, 540, 539, 539, 539, 539, 539, 539, 538, 538, 538, 538, 537, 537, 537, 537, 537, 536, 536, 536, 536, 536, 536, 536, 536, 536, 536, 536, 537, 537, 536, 536, 536, 536, 536, 536, 537, 537, 537, 537, 537, 537, 537, 537, 537, 537, 537, 537, 537, 537, 537, 537, 537, 537, 537, 537, 537, 538, 537, 537, 537, 537, 538, 538, 538, 538, 538, 539, 539, 539, 538, 538, 538, 539, 539, 539, 540, 540, 541, 541, 541, 541, 541, 541, 541, 541, 541, 541, 541, 541, 541, 541, 541, 541, 541, 541, 541, 541, 541, 541, 541, 541, 541, 541, 541, 541, 541, 541, 541, 541, 542, 542, 542, 542, 542, 542, 542, 542, 543, 544, 544, 544, 544, 545, 545, 545, 545, 545, 545, 545, 545, 545, 545, 545, 546, 546, 546, 546, 546, 546, 547, 547, 547, 547, 547, 547, 547, 547, 547, 547, 547, 548, 548, 548, 548, 548, 548, 549, 549, 548, 548, 548, 548, 548, 0, 0, 0, 0, 0, 0, 0, 0, 0, 0, 0, 0, 0, 0, 0, 0, 0, 0, 0, 0, 0, 0, 0, 0, 0, 0, 0, 0, 0, 0, 0, 0, 0, 0, 0, 0, 0, 0, 0, 0, 0, 0, 0, 0, 0, 0, 0, 0, 0, 0, 0, 0, 0, 0, 0, 0, 0, 0, 0, 0, 0, 0, 0, 0, 0, 0, 0, 0, 0, 0, 0, 0, 0, 0, 0, 0, 0, 0, 0, 0, 0, 0, 0, 0, 0, 0, 0, 0, 0, 0, 0, 0, 0, 0, 0, 0, 0, 0, 0, 0, 0, 0, 0, 0, 0, 0, 0, 0, 0, 0, 0, 0, 0, 0, 0, 0, 0, 0, 0, 0, 0, 0, 0, 0, 0, 0, 0, 0, 0, 0, 0, 0, 0, 0, 0, 0, 0, 0, 0, 0, 0, 0, 0, 0, 0, 0, 0, 0, 0, 0, 0, 0, 0, 0, 0, 0, 0, 0, 0, 0,
       0, 0, 0, 0, 0, 0, 0, 0, 0, 0, 0, 0, 0, 0, 0, 0, 0, 0, 0, 0, 0, 0, 0, 0, 0, 0, 0, 0, 0, 0, 0, 0, 0, 0, 0, 0, 0, 0, 0, 0, 0, 0, 0, 0, 0, 0, 0, 0, 0, 0, 0, 0, 0, 0, 0, 0, 0, 0, 0, 0, 0, 0, 0, 0, 0, 0, 0, 0, 0, 0, 0, 0, 0, 0, 0, 0, 0, 0, 0, 0, 0, 0, 0, 0, 0, 0, 0, 0, 0, 0, 0, 0, 0, 0, 0, 0, 0, 0, 0, 0, 0, 0, 0, 0, 0, 0, 0, 0, 0, 0, 0, 0, 0, 0, 0, 0, 0, 0, 0, 0, 0, 0, 0, 0, 0, 0, 0, 0, 0, 523, 523, 523, 523, 523, 523, 523, 523, 523, 523, 523, 523, 523, 524, 524, 524, 524, 524, 525, 525, 526, 526, 526, 526, 526, 526, 526, 525, 524, 524, 525, 525, 525, 526, 526, 526, 527, 527, 527, 527, 527, 527, 527, 527, 527, 527, 527, 527, 527, 527, 527, 527, 527, 527, 528, 528, 528, 528, 529, 529, 529, 529, 530, 530, 530, 530, 528, 528, 529, 529, 529, 529, 529, 529, 530, 530, 530, 530, 530, 531, 531, 531, 531, 531, 532, 532, 532, 532, 531, 531, 531, 531, 531, 531, 531, 531, 531, 531, 532, 532, 532, 531, 531, 532, 532, 532, 532, 532, 533, 533, 533, 533, 533, 533, 533, 533, 533, 533, 533, 533, 533, 534, 534, 535, 535, 536, 536, 537, 536, 536, 536, 536, 536, 536, 536, 536, 536, 536, 536, 536, 536, 536, 536, 536, 536, 536, 536, 536, 536, 536, 537, 538, 539, 539, 539, 538, 538, 538, 537, 537, 538, 538, 538, 539, 539, 541, 541, 541, 542, 545, 545, 544, 544, 543, 543, 543, 542, 542, 542, 543, 544, 544, 543, 543, 542, 541, 540, 540, 540, 540, 540, 540, 540, 540, 540, 540, 539, 539, 539, 538, 538, 538, 538, 538, 538, 538, 538, 538, 537, 537, 536, 536, 536, 536, 536, 537, 537, 537, 537, 537, 537, 537, 537, 537, 537, 537, 537, 537, 537, 537, 537, 537, 537, 537, 537, 537, 537, 537, 537, 537, 538, 537, 537, 538, 538, 538, 538, 538, 538, 538, 539, 539, 539, 539, 539, 540, 539, 539, 539, 539, 540, 540, 540, 541, 541, 541, 541, 541, 541, 541, 541, 541, 541, 541, 541, 541, 541, 541, 541, 541, 541, 541, 541, 541, 541, 541, 541, 541, 541, 541, 541, 541, 541, 541, 541, 541, 541, 542, 542, 542, 542, 542, 542, 542, 542, 543, 544, 544, 544, 544, 545, 545, 545, 545, 545, 545, 545, 545, 545, 545, 545, 546, 546, 546, 546, 546, 546, 547, 547, 547, 547, 547, 547, 547, 547, 547, 547, 547, 547, 548, 548, 548, 548, 548, 549, 548, 548, 548, 548, 548, 548, 0, 0, 0, 0, 0, 0, 0, 0, 0, 0, 0, 0, 0, 0, 0, 0, 0, 0, 0, 0, 0, 0, 0, 0, 0, 0, 0, 0, 0, 0, 0, 0, 0, 0, 0, 0, 0, 0, 0, 0, 0, 0, 0, 0, 0, 0, 0, 0, 0, 0, 0, 0, 0, 0, 0, 0, 0, 0, 0, 0, 0, 0, 0, 0, 0, 0, 0, 0, 0, 0, 0, 0, 0, 0, 0, 0, 0, 0, 0, 0, 0, 0, 0, 0, 0, 0, 0, 0, 0, 0, 0, 0, 0, 0, 0, 0, 0, 0, 0, 0, 0, 0, 0, 0, 0, 0, 0, 0, 0, 0, 0, 0, 0, 0, 0, 0, 0, 0, 0, 0, 0, 0, 0, 0, 0, 0, 0, 0, 0, 0, 0, 0, 0, 0, 0, 0, 0, 0, 0, 0, 0, 0, 0, 0, 0, 0, 0, 0, 0, 0, 0, 0, 0, 0, 0, 0, 0, 0, 0, 0,
       0, 0, 0, 0, 0, 0, 0, 0, 0, 0, 0, 0, 0, 0, 0, 0, 0, 0, 0, 0, 0, 0, 0, 0, 0, 0, 0, 0, 0, 0, 0, 0, 0, 0, 0, 0, 0, 0, 0, 0, 0, 0, 0, 0, 0, 0, 0, 0, 0, 0, 0, 0, 0, 0, 0, 0, 0, 0, 0, 0, 0, 0, 0, 0, 0, 0, 0, 0, 0, 0, 0, 0, 0, 0, 0, 0, 0, 0, 0, 0, 0, 0, 0, 0, 0, 0, 0, 0, 0, 0, 0, 0, 0, 0, 0, 0, 0, 0, 0, 0, 0, 0, 0, 0, 0, 0, 0, 0, 0, 0, 0, 0, 0, 0, 0, 0, 0, 0, 0, 0, 0, 0, 0, 0, 0, 0, 0, 0, 0, 524, 524, 523, 523, 523, 523, 523, 523, 523, 523, 523, 524, 524, 524, 524, 524, 524, 524, 525, 526, 526, 526, 526, 526, 527, 527, 527, 527, 527, 527, 527, 527, 527, 527, 527, 527, 527, 527, 527, 527, 527, 527, 527, 528, 528, 529, 529, 529, 529, 528, 528, 528, 528, 528, 529, 529, 529, 529, 530, 530, 531, 531, 531, 531, 531, 531, 531, 531, 531, 531, 531, 530, 530, 531, 531, 531, 531, 531, 531, 531, 531, 532, 533, 533, 533, 533, 533, 533, 532, 532, 532, 532, 533, 533, 533, 532, 532, 533, 533, 533, 533, 532, 532, 533, 533, 533, 534, 534, 534, 534, 534, 534, 534, 535, 535, 535, 534, 534, 534, 534, 534, 535, 535, 536, 536, 537, 539, 539, 539, 538, 538, 537, 537, 537, 536, 536, 536, 537, 537, 538, 538, 536, 536, 536, 536, 536, 536, 536, 536, 537, 539, 540, 540, 540, 540, 539, 539, 538, 538, 538, 539, 539, 539, 539, 539, 543, 542, 542, 543, 544, 545, 543, 543, 543, 543, 543, 543, 543, 543, 543, 544, 544, 544, 544, 543, 541, 541, 541, 541, 541, 541, 541, 541, 541, 541, 541, 541, 540, 540, 540, 540, 539, 539, 540, 540, 539, 539, 539, 539, 539, 538, 538, 537, 537, 537, 538, 538, 538, 538, 537, 537, 537, 537, 537, 537, 538, 538, 538, 538, 538, 538, 538, 538, 538, 538, 538, 538, 538, 538, 538, 538, 538, 538, 539, 539, 539, 538, 538, 538, 539, 539, 539, 539, 540, 540, 540, 540, 540, 540, 540, 540, 541, 541, 541, 541, 541, 541, 541, 541, 541, 541, 541, 541, 541, 541, 541, 541, 541, 541, 541, 541, 541, 541, 541, 541, 541, 541, 541, 541, 541, 541, 541, 541, 541, 541, 541, 541, 542, 542, 542, 542, 542, 542, 542, 542, 543, 544, 544, 544, 544, 545, 545, 545, 545, 545, 545, 545, 545, 545, 545, 545, 546, 546, 546, 546, 546, 546, 547, 547, 547, 547, 547, 547, 547, 547, 547, 547, 547, 547, 548, 548, 548, 548, 548, 549, 548, 548, 548, 548, 548, 548, 0, 0, 0, 0, 0, 0, 0, 0, 0, 0, 0, 0, 0, 0, 0, 0, 0, 0, 0, 0, 0, 0, 0, 0, 0, 0, 0, 0, 0, 0, 0, 0, 0, 0, 0, 0, 0, 0, 0, 0, 0, 0, 0, 0, 0, 0, 0, 0, 0, 0, 0, 0, 0, 0, 0, 0, 0, 0, 0, 0, 0, 0, 0, 0, 0, 0, 0, 0, 0, 0, 0, 0, 0, 0, 0, 0, 0, 0, 0, 0, 0, 0, 0, 0, 0, 0, 0, 0, 0, 0, 0, 0, 0, 0, 0, 0, 0, 0, 0, 0, 0, 0, 0, 0, 0, 0, 0, 0, 0, 0, 0, 0, 0, 0, 0, 0, 0, 0, 0, 0, 0, 0, 0, 0, 0, 0, 0, 0, 0, 0, 0, 0, 0, 0, 0, 0, 0, 0, 0, 0, 0, 0, 0, 0, 0, 0, 0, 0, 0, 0, 0, 0, 0, 0, 0, 0, 0, 0, 0, 0,
       0, 0, 0, 0, 0, 0, 0, 0, 0, 0, 0, 0, 0, 0, 0, 0, 0, 0, 0, 0, 0, 0, 0, 0, 0, 0, 0, 0, 0, 0, 0, 0, 0, 0, 0, 0, 0, 0, 0, 0, 0, 0, 0, 0, 0, 0, 0, 0, 0, 0, 0, 0, 0, 0, 0, 0, 0, 0, 0, 0, 0, 0, 0, 0, 0, 0, 0, 0, 0, 0, 0, 0, 0, 0, 0, 0, 0, 0, 0, 0, 0, 0, 0, 0, 0, 0, 0, 0, 0, 0, 0, 0, 0, 0, 0, 0, 0, 0, 0, 0, 0, 0, 0, 0, 0, 0, 0, 0, 0, 0, 0, 0, 0, 0, 0, 0, 0, 0, 0, 0, 0, 0, 0, 0, 0, 0, 0, 0, 0, 525, 525, 524, 524, 525, 525, 524, 523, 523, 524, 524, 524, 524, 525, 525, 525, 525, 525, 526, 526, 527, 526, 526, 527, 527, 527, 527, 527, 527, 527, 528, 527, 527, 527, 528, 528, 529, 529, 529, 529, 529, 529, 529, 530, 530, 531, 531, 531, 531, 531, 530, 530, 529, 529, 530, 530, 531, 531, 531, 531, 531, 531, 531, 531, 531, 531, 532, 531, 531, 531, 532, 532, 532, 532, 531, 531, 531, 531, 532, 533, 533, 533, 534, 534, 534, 534, 534, 534, 533, 533, 534, 534, 535, 535, 535, 534, 534, 534, 534, 534, 534, 534, 535, 535, 535, 535, 535, 536, 536, 536, 536, 536, 536, 536, 536, 536, 535, 535, 535, 535, 535, 536, 536, 536, 537, 539, 539, 540, 540, 540, 539, 539, 538, 538, 538, 538, 538, 538, 539, 539, 540, 539, 538, 538, 536, 536, 537, 537, 539, 539, 539, 541, 541, 541, 541, 540, 540, 539, 539, 539, 0, 0, 0, 0, 545, 545, 543, 543, 543, 544, 545, 543, 543, 543, 543, 543, 543, 543, 545, 545, 545, 0, 546, 546, 0, 0, 549, 549, 544, 542, 542, 543, 543, 543, 542, 542, 541, 541, 541, 541, 541, 541, 541, 541, 541, 541, 540, 540, 540, 540, 539, 539, 539, 539, 540, 540, 540, 539, 538, 538, 538, 538, 538, 538, 538, 539, 539, 539, 539, 539, 539, 539, 539, 539, 539, 539, 539, 539, 539, 539, 539, 539, 539, 540, 540, 540, 539, 539, 539, 540, 540, 540, 540, 540, 540, 540, 540, 540, 540, 540, 540, 541, 541, 541, 541, 541, 541, 541, 541, 541, 541, 541, 541, 541, 541, 541, 541, 541, 541, 541, 541, 541, 541, 541, 541, 541, 541, 541, 542, 542, 542, 542, 542, 542, 542, 542, 542, 542, 542, 542, 542, 542, 542, 542, 543, 543, 544, 544, 544, 544, 545, 545, 545, 545, 545, 545, 545, 545, 545, 545, 546, 546, 546, 546, 546, 546, 546, 547, 547, 547, 547, 547, 547, 547, 547, 547, 547, 547, 547, 548, 548, 548, 548, 548, 549, 548, 548, 548, 548, 548, 548, 0, 0, 0, 0, 0, 0, 0, 0, 0, 0, 0, 0, 0, 0, 0, 0, 0, 0, 0, 0, 0, 0, 0, 0, 0, 0, 0, 0, 0, 0, 0, 0, 0, 0, 0, 0, 0, 0, 0, 0, 0, 0, 0, 0, 0, 0, 0, 0, 0, 0, 0, 0, 0, 0, 0, 0, 0, 0, 0, 0, 0, 0, 0, 0, 0, 0, 0, 0, 0, 0, 0, 0, 0, 0, 0, 0, 0, 0, 0, 0, 0, 0, 0, 0, 0, 0, 0, 0, 0, 0, 0, 0, 0, 0, 0, 0, 0, 0, 0, 0, 0, 0, 0, 0, 0, 0, 0, 0, 0, 0, 0, 0, 0, 0, 0, 0, 0, 0, 0, 0, 0, 0, 0, 0, 0, 0, 0, 0, 0, 0, 0, 0, 0, 0, 0, 0, 0, 0, 0, 0, 0, 0, 0, 0, 0, 0, 0, 0, 0, 0, 0, 0, 0, 0, 0, 0, 0, 0, 0, 0,
       0, 0, 0, 0, 0, 0, 0, 0, 0, 0, 0, 0, 0, 0, 0, 0, 0, 0, 0, 0, 0, 0, 0, 0, 0, 0, 0, 0, 0, 0, 0, 0, 0, 0, 0, 0, 0, 0, 0, 0, 0, 0, 0, 0, 0, 0, 0, 0, 0, 0, 0, 0, 0, 0, 0, 0, 0, 0, 0, 0, 0, 0, 0, 0, 0, 0, 0, 0, 0, 0, 0, 0, 0, 0, 0, 0, 0, 0, 0, 0, 0, 0, 0, 0, 0, 0, 0, 0, 0, 0, 0, 0, 0, 0, 0, 0, 0, 0, 0, 0, 0, 0, 0, 0, 0, 0, 0, 0, 0, 0, 0, 0, 0, 0, 0, 0, 0, 0, 0, 0, 0, 0, 0, 0, 0, 0, 0, 0, 0, 0, 526, 525, 525, 526, 526, 526, 526, 526, 526, 525, 525, 526, 526, 526, 527, 527, 527, 527, 527, 527, 527, 527, 527, 527, 527, 528, 528, 528, 529, 529, 529, 529, 529, 530, 530, 530, 530, 530, 530, 530, 530, 530, 531, 531, 531, 531, 531, 531, 531, 531, 531, 531, 531, 531, 531, 531, 531, 531, 532, 532, 532, 532, 532, 532, 532, 532, 532, 532, 532, 532, 533, 534, 533, 533, 534, 534, 533, 533, 534, 534, 535, 535, 535, 535, 535, 534, 534, 535, 535, 535, 536, 536, 536, 536, 536, 536, 535, 535, 535, 535, 535, 536, 536, 535, 535, 536, 536, 536, 536, 536, 537, 537, 537, 537, 537, 536, 536, 536, 536, 536, 536, 536, 537, 538, 540, 540, 541, 541, 541, 541, 540, 539, 539, 540, 539, 539, 540, 540, 541, 541, 541, 541, 0, 0, 0, 0, 0, 0, 0, 0, 541, 541, 541, 541, 541, 541, 541, 539, 539, 0, 0, 0, 0, 0, 545, 544, 544, 544, 545, 546, 0, 0, 0, 0, 0, 0, 0, 545, 545, 545, 0, 0, 0, 549, 549, 549, 549, 547, 547, 547, 546, 545, 545, 545, 545, 545, 545, 544, 544, 543, 542, 542, 541, 541, 541, 541, 541, 541, 541, 541, 541, 541, 541, 541, 541, 541, 541, 541, 542, 541, 541, 541, 541, 541, 541, 541, 541, 541, 541, 541, 540, 540, 540, 540, 540, 540, 540, 540, 540, 540, 540, 540, 540, 540, 540, 540, 540, 540, 540, 540, 540, 541, 541, 541, 541, 541, 541, 541, 541, 541, 541, 541, 541, 541, 541, 541, 541, 541, 541, 541, 541, 541, 541, 542, 541, 541, 541, 541, 541, 541, 541, 542, 542, 542, 542, 542, 542, 542, 543, 543, 543, 543, 543, 543, 542, 542, 542, 542, 542, 542, 542, 542, 542, 543, 543, 544, 544, 544, 544, 545, 545, 545, 545, 545, 545, 545, 545, 546, 546, 546, 546, 546, 546, 546, 546, 546, 547, 547, 547, 547, 547, 547, 547, 547, 547, 547, 547, 547, 548, 548, 548, 548, 548, 548, 548, 548, 548, 548, 548, 548, 0, 0, 0, 0, 0, 0, 0, 0, 0, 0, 0, 0, 0, 0, 0, 0, 0, 0, 0, 0, 0, 0, 0, 0, 0, 0, 0, 0, 0, 0, 0, 0, 0, 0, 0, 0, 0, 0, 0, 0, 0, 0, 0, 0, 0, 0, 0, 0, 0, 0, 0, 0, 0, 0, 0, 0, 0, 0, 0, 0, 0, 0, 0, 0, 0, 0, 0, 0, 0, 0, 0, 0, 0, 0, 0, 0, 0, 0, 0, 0, 0, 0, 0, 0, 0, 0, 0, 0, 0, 0, 0, 0, 0, 0, 0, 0, 0, 0, 0, 0, 0, 0, 0, 0, 0, 0, 0, 0, 0, 0, 0, 0, 0, 0, 0, 0, 0, 0, 0, 0, 0, 0, 0, 0, 0, 0, 0, 0, 0, 0, 0, 0, 0, 0, 0, 0, 0, 0, 0, 0, 0, 0, 0, 0, 0, 0, 0, 0, 0, 0, 0, 0, 0, 0, 0, 0, 0, 0, 0, 0,
       0, 0, 0, 0, 0, 0, 0, 0, 0, 0, 0, 0, 0, 0, 0, 0, 0, 0, 0, 0, 0, 0, 0, 0, 0, 0, 0, 0, 0, 0, 0, 0, 0, 0, 0, 0, 0, 0, 0, 0, 0, 0, 0, 0, 0, 0, 0, 0, 0, 0, 0, 0, 0, 0, 0, 0, 0, 0, 0, 0, 0, 0, 0, 0, 0, 0, 0, 0, 0, 0, 0, 0, 0, 0, 0, 0, 0, 0, 0, 0, 0, 0, 0, 0, 0, 0, 0, 0, 0, 0, 0, 0, 0, 0, 0, 0, 0, 0, 0, 0, 0, 0, 0, 0, 0, 0, 0, 0, 0, 0, 0, 0, 0, 0, 0, 0, 0, 0, 0, 0, 0, 0, 0, 0, 0, 0, 0, 0, 0, 0, 527, 527, 527, 527, 527, 527, 527, 527, 527, 527, 527, 527, 527, 528, 527, 527, 527, 527, 527, 527, 527, 527, 527, 528, 528, 529, 529, 529, 529, 529, 530, 530, 530, 531, 531, 531, 531, 531, 531, 531, 531, 531, 531, 531, 531, 531, 531, 531, 532, 532, 532, 532, 532, 532, 531, 531, 531, 531, 533, 533, 533, 533, 533, 533, 534, 533, 533, 533, 533, 533, 534, 535, 535, 535, 535, 536, 536, 536, 536, 536, 536, 536, 535, 535, 535, 535, 535, 535, 535, 536, 536, 536, 536, 536, 536, 536, 536, 535, 535, 535, 536, 536, 536, 536, 536, 536, 537, 537, 537, 537, 537, 538, 538, 537, 537, 537, 537, 537, 537, 537, 537, 537, 538, 539, 540, 540, 541, 541, 541, 541, 541, 541, 541, 541, 541, 541, 541, 541, 0, 0, 0, 0, 0, 0, 0, 0, 0, 0, 0, 0, 0, 0, 0, 0, 541, 541, 541, 0, 0, 0, 0, 0, 0, 0, 0, 0, 0, 0, 0, 0, 0, 0, 0, 0, 0, 0, 0, 0, 0, 0, 0, 0, 0, 549, 549, 549, 549, 548, 548, 548, 547, 546, 546, 546, 545, 545, 546, 546, 546, 546, 546, 544, 543, 543, 543, 542, 542, 542, 542, 542, 542, 542, 542, 542, 543, 543, 543, 543, 543, 543, 542, 542, 542, 542, 542, 542, 541, 541, 541, 541, 541, 541, 541, 541, 541, 541, 541, 541, 541, 541, 541, 541, 541, 541, 541, 541, 540, 540, 541, 541, 541, 541, 541, 541, 541, 541, 541, 541, 541, 541, 541, 541, 541, 541, 541, 541, 541, 542, 542, 542, 542, 542, 542, 542, 542, 542, 542, 542, 543, 542, 542, 542, 543, 543, 543, 543, 543, 543, 544, 544, 543, 543, 543, 543, 543, 543, 543, 543, 543, 543, 543, 542, 542, 543, 543, 544, 544, 544, 544, 545, 545, 545, 545, 545, 545, 546, 546, 546, 546, 546, 546, 546, 546, 546, 546, 546, 547, 547, 547, 547, 547, 547, 547, 547, 547, 547, 547, 547, 548, 548, 548, 548, 548, 548, 548, 548, 548, 548, 548, 548, 0, 0, 0, 0, 0, 0, 0, 0, 0, 0, 0, 0, 0, 0, 0, 0, 0, 0, 0, 0, 0, 0, 0, 0, 0, 0, 0, 0, 0, 0, 0, 0, 0, 0, 0, 0, 0, 0, 0, 0, 0, 0, 0, 0, 0, 0, 0, 0, 0, 0, 0, 0, 0, 0, 0, 0, 0, 0, 0, 0, 0, 0, 0, 0, 0, 0, 0, 0, 0, 0, 0, 0, 0, 0, 0, 0, 0, 0, 0, 0, 0, 0, 0, 0, 0, 0, 0, 0, 0, 0, 0, 0, 0, 0, 0, 0, 0, 0, 0, 0, 0, 0, 0, 0, 0, 0, 0, 0, 0, 0, 0, 0, 0, 0, 0, 0, 0, 0, 0, 0, 0, 0, 0, 0, 0, 0, 0, 0, 0, 0, 0, 0, 0, 0, 0, 0, 0, 0, 0, 0, 0, 0, 0, 0, 0, 0, 0, 0, 0, 0, 0, 0, 0, 0, 0, 0, 0, 0, 0, 0,
       0, 0, 0, 0, 0, 0, 0, 0, 0, 0, 0, 0, 0, 0, 0, 0, 0, 0, 0, 0, 0, 0, 0, 0, 0, 0, 0, 0, 0, 0, 0, 0, 0, 0, 0, 0, 0, 0, 0, 0, 0, 0, 0, 0, 0, 0, 0, 0, 0, 0, 0, 0, 0, 0, 0, 0, 0, 0, 0, 0, 0, 0, 0, 0, 0, 0, 0, 0, 0, 0, 0, 0, 0, 0, 0, 0, 0, 0, 0, 0, 0, 0, 0, 0, 0, 0, 0, 0, 0, 0, 0, 0, 0, 0, 0, 0, 0, 0, 0, 0, 0, 0, 0, 0, 0, 0, 0, 0, 0, 0, 0, 0, 0, 0, 0, 0, 0, 0, 0, 0, 0, 0, 0, 0, 0, 0, 0, 0, 0, 0, 527, 527, 527, 528, 527, 527, 528, 528, 529, 529, 529, 529, 529, 530, 530, 530, 529, 527, 527, 527, 527, 527, 528, 529, 529, 529, 530, 530, 530, 530, 530, 530, 530, 531, 531, 531, 531, 532, 532, 532, 531, 531, 531, 531, 531, 531, 531, 532, 532, 533, 533, 533, 536, 534, 534, 534, 534, 535, 534, 534, 534, 534, 534, 534, 534, 534, 535, 535, 535, 535, 535, 536, 536, 536, 536, 536, 536, 536, 537, 537, 537, 536, 536, 536, 537, 537, 537, 536, 536, 536, 537, 536, 536, 536, 536, 536, 536, 535, 535, 535, 536, 536, 536, 536, 536, 536, 537, 537, 537, 538, 539, 539, 539, 538, 538, 539, 540, 539, 539, 538, 538, 538, 538, 539, 541, 541, 541, 541, 541, 541, 541, 541, 541, 541, 541, 0, 0, 0, 0, 0, 0, 0, 0, 0, 0, 0, 0, 0, 0, 0, 0, 0, 0, 0, 0, 0, 0, 0, 0, 0, 0, 0, 0, 0, 0, 0, 0, 0, 0, 0, 0, 0, 0, 0, 0, 0, 0, 0, 0, 0, 0, 0, 0, 0, 550, 550, 550, 549, 549, 549, 548, 547, 547, 546, 546, 546, 546, 546, 546, 546, 546, 544, 543, 543, 543, 543, 543, 543, 543, 543, 543, 543, 543, 543, 544, 544, 544, 544, 544, 543, 543, 543, 543, 543, 543, 543, 543, 543, 543, 543, 542, 542, 542, 542, 541, 541, 541, 541, 541, 541, 541, 541, 541, 541, 541, 541, 541, 541, 541, 541, 541, 541, 541, 541, 541, 541, 541, 541, 541, 541, 542, 542, 542, 542, 542, 542, 542, 542, 542, 542, 542, 543, 543, 543, 543, 543, 542, 542, 543, 543, 543, 543, 543, 544, 544, 544, 544, 544, 544, 544, 544, 544, 544, 544, 544, 544, 544, 544, 544, 544, 544, 544, 544, 544, 544, 545, 544, 544, 545, 545, 545, 545, 545, 545, 545, 546, 546, 546, 546, 546, 546, 546, 546, 546, 546, 546, 547, 547, 547, 547, 547, 547, 547, 547, 547, 547, 547, 547, 548, 548, 548, 548, 548, 548, 548, 548, 548, 548, 548, 548, 0, 0, 0, 0, 0, 0, 0, 0, 0, 0, 0, 0, 0, 0, 0, 0, 0, 0, 0, 0, 0, 0, 0, 0, 0, 0, 0, 0, 0, 0, 0, 0, 0, 0, 0, 0, 0, 0, 0, 0, 0, 0, 0, 0, 0, 0, 0, 0, 0, 0, 0, 0, 0, 0, 0, 0, 0, 0, 0, 0, 0, 0, 0, 0, 0, 0, 0, 0, 0, 0, 0, 0, 0, 0, 0, 0, 0, 0, 0, 0, 0, 0, 0, 0, 0, 0, 0, 0, 0, 0, 0, 0, 0, 0, 0, 0, 0, 0, 0, 0, 0, 0, 0, 0, 0, 0, 0, 0, 0, 0, 0, 0, 0, 0, 0, 0, 0, 0, 0, 0, 0, 0, 0, 0, 0, 0, 0, 0, 0, 0, 0, 0, 0, 0, 0, 0, 0, 0, 0, 0, 0, 0, 0, 0, 0, 0, 0, 0, 0, 0, 0, 0, 0, 0, 0, 0, 0, 0, 0, 0 ]
